ply
format ascii 1.0
element vertex 1992
comment vertices
property float x
property float y
property float z
property uchar red
property uchar green
property uchar blue
end_header
311 307 247 255 255 255
311 307 248 255 255 255
311 307 249 255 255 255
311 307 250 255 255 255
311 307 251 255 255 255
311 307 252 255 255 255
311 307 253 255 255 255
311 307 254 255 255 255
311 307 255 255 255 255
311 307 256 255 255 255
311 307 257 255 255 255
311 307 258 255 255 255
311 307 259 255 255 255
311 307 260 255 255 255
311 307 261 255 255 255
311 307 262 255 255 255
311 307 263 255 255 255
311 307 264 255 255 255
311 307 265 255 255 255
311 307 266 255 255 255
311 308 247 255 255 255
311 308 248 255 255 255
311 308 249 255 255 255
311 308 250 255 255 255
311 308 251 255 255 255
311 308 252 255 255 255
311 308 253 255 255 255
311 308 254 255 255 255
311 308 255 255 255 255
311 308 256 255 255 255
311 308 257 255 255 255
311 308 258 255 255 255
311 308 259 255 255 255
311 308 260 255 255 255
311 308 261 255 255 255
311 308 262 255 255 255
311 308 263 255 255 255
311 308 264 255 255 255
311 308 265 255 255 255
311 309 248 255 255 255
311 309 249 255 255 255
311 309 250 255 255 255
311 309 251 255 255 255
311 309 252 255 255 255
311 309 253 255 255 255
311 309 254 255 255 255
311 309 255 255 255 255
311 309 256 255 255 255
311 309 257 255 255 255
311 309 258 255 255 255
311 309 259 255 255 255
311 309 261 255 255 255
311 309 262 255 255 255
311 309 263 255 255 255
311 309 264 255 255 255
311 309 327 255 255 255
311 309 328 255 255 255
311 310 250 255 255 255
311 310 251 255 255 255
311 310 252 255 255 255
311 310 253 255 255 255
311 310 254 255 255 255
311 310 255 255 255 255
311 310 256 255 255 255
311 310 257 255 255 255
311 310 258 255 255 255
311 310 259 255 255 255
311 310 260 255 255 255
311 310 327 255 255 255
311 310 328 255 255 255
311 310 329 255 255 255
311 311 329 255 255 255
311 311 331 255 255 255
311 312 331 255 255 255
311 313 208 255 255 255
311 314 207 255 255 255
311 314 208 255 255 255
311 315 207 255 255 255
311 315 208 255 255 255
312 261 198 255 255 255
312 262 198 255 255 255
312 283 326 255 255 255
312 283 327 255 255 255
312 284 326 255 255 255
312 284 327 255 255 255
312 284 328 255 255 255
312 285 327 255 255 255
312 288 333 255 255 255
312 296 253 255 255 255
312 296 254 255 255 255
312 296 255 255 255 255
312 296 256 255 255 255
312 296 257 255 255 255
312 296 258 255 255 255
312 296 259 255 255 255
312 297 202 255 255 255
312 297 203 255 255 255
312 297 251 255 255 255
312 297 252 255 255 255
312 297 253 255 255 255
312 297 254 255 255 255
312 297 255 255 255 255
312 297 256 255 255 255
312 297 257 255 255 255
312 297 258 255 255 255
312 297 259 255 255 255
312 297 260 255 255 255
312 297 261 255 255 255
312 297 262 255 255 255
312 298 202 255 255 255
312 298 203 255 255 255
312 298 249 255 255 255
312 298 250 255 255 255
312 298 251 255 255 255
312 298 252 255 255 255
312 298 253 255 255 255
312 298 254 255 255 255
312 298 255 255 255 255
312 298 256 255 255 255
312 298 257 255 255 255
312 298 258 255 255 255
312 298 259 255 255 255
312 298 260 255 255 255
312 298 261 255 255 255
312 298 262 255 255 255
312 298 263 255 255 255
312 299 248 255 255 255
312 299 249 255 255 255
312 299 250 255 255 255
312 299 251 255 255 255
312 299 252 255 255 255
312 299 253 255 255 255
312 299 254 255 255 255
312 299 255 255 255 255
312 299 256 255 255 255
312 299 257 255 255 255
312 299 258 255 255 255
312 299 259 255 255 255
312 299 260 255 255 255
312 299 261 255 255 255
312 299 262 255 255 255
312 299 263 255 255 255
312 299 264 255 255 255
312 300 247 255 255 255
312 300 248 255 255 255
312 300 249 255 255 255
312 300 250 255 255 255
312 300 251 255 255 255
312 300 252 255 255 255
312 300 253 255 255 255
312 300 254 255 255 255
312 300 255 255 255 255
312 300 256 255 255 255
312 300 257 255 255 255
312 300 258 255 255 255
312 300 259 255 255 255
312 300 260 255 255 255
312 300 261 255 255 255
312 300 262 255 255 255
312 300 263 255 255 255
312 300 264 255 255 255
312 300 265 255 255 255
312 301 246 255 255 255
312 301 247 255 255 255
312 301 248 255 255 255
312 301 249 255 255 255
312 301 250 255 255 255
312 301 251 255 255 255
312 301 252 255 255 255
312 301 253 255 255 255
312 301 254 255 255 255
312 301 255 255 255 255
312 301 256 255 255 255
312 301 257 255 255 255
312 301 258 255 255 255
312 301 259 255 255 255
312 301 260 255 255 255
312 301 261 255 255 255
312 301 262 255 255 255
312 301 263 255 255 255
312 301 264 255 255 255
312 301 265 255 255 255
312 302 246 255 255 255
312 302 247 255 255 255
312 302 248 255 255 255
312 302 249 255 255 255
312 302 250 255 255 255
312 302 251 255 255 255
312 302 252 255 255 255
312 302 253 255 255 255
312 302 254 255 255 255
312 302 255 255 255 255
312 302 256 255 255 255
312 302 257 255 255 255
312 302 258 255 255 255
312 302 259 255 255 255
312 302 260 255 255 255
312 302 261 255 255 255
312 302 262 255 255 255
312 302 263 255 255 255
312 302 264 255 255 255
312 302 265 255 255 255
312 302 266 255 255 255
312 303 246 255 255 255
312 303 247 255 255 255
312 303 248 255 255 255
312 303 249 255 255 255
312 303 250 255 255 255
312 303 251 255 255 255
312 303 252 255 255 255
312 303 253 255 255 255
312 303 254 255 255 255
312 303 255 255 255 255
312 303 258 255 255 255
312 303 259 255 255 255
312 303 260 255 255 255
312 303 261 255 255 255
312 303 262 255 255 255
312 303 263 255 255 255
312 303 264 255 255 255
312 303 265 255 255 255
312 303 266 255 255 255
312 304 246 255 255 255
312 304 247 255 255 255
312 304 248 255 255 255
312 304 249 255 255 255
312 304 250 255 255 255
312 304 251 255 255 255
312 304 252 255 255 255
312 304 253 255 255 255
312 304 254 255 255 255
312 304 255 255 255 255
312 304 258 255 255 255
312 304 259 255 255 255
312 304 260 255 255 255
312 304 261 255 255 255
312 304 262 255 255 255
312 304 263 255 255 255
312 304 264 255 255 255
312 304 265 255 255 255
312 304 266 255 255 255
312 305 246 255 255 255
312 305 247 255 255 255
312 305 248 255 255 255
312 305 249 255 255 255
312 305 250 255 255 255
312 305 251 255 255 255
312 305 252 255 255 255
312 305 253 255 255 255
312 305 254 255 255 255
312 305 255 255 255 255
312 305 258 255 255 255
312 305 259 255 255 255
312 305 260 255 255 255
312 305 261 255 255 255
312 305 262 255 255 255
312 305 263 255 255 255
312 305 264 255 255 255
312 305 265 255 255 255
312 305 266 255 255 255
312 306 246 255 255 255
312 306 247 255 255 255
312 306 248 255 255 255
312 306 249 255 255 255
312 306 250 255 255 255
312 306 251 255 255 255
312 306 252 255 255 255
312 306 253 255 255 255
312 306 254 255 255 255
312 306 255 255 255 255
312 306 258 255 255 255
312 306 259 255 255 255
312 306 260 255 255 255
312 306 261 255 255 255
312 306 262 255 255 255
312 306 263 255 255 255
312 306 264 255 255 255
312 306 265 255 255 255
312 307 247 255 255 255
312 307 248 255 255 255
312 307 249 255 255 255
312 307 250 255 255 255
312 307 251 255 255 255
312 307 252 255 255 255
312 307 253 255 255 255
312 307 254 255 255 255
312 307 255 255 255 255
312 307 257 255 255 255
312 307 258 255 255 255
312 307 259 255 255 255
312 307 260 255 255 255
312 307 261 255 255 255
312 307 262 255 255 255
312 307 263 255 255 255
312 307 264 255 255 255
312 307 265 255 255 255
312 308 247 255 255 255
312 308 248 255 255 255
312 308 249 255 255 255
312 308 250 255 255 255
312 308 251 255 255 255
312 308 252 255 255 255
312 308 253 255 255 255
312 308 254 255 255 255
312 308 255 255 255 255
312 308 256 255 255 255
312 308 257 255 255 255
312 308 258 255 255 255
312 308 259 255 255 255
312 308 260 255 255 255
312 308 261 255 255 255
312 308 262 255 255 255
312 308 263 255 255 255
312 308 264 255 255 255
312 309 249 255 255 255
312 309 250 255 255 255
312 309 251 255 255 255
312 309 252 255 255 255
312 309 253 255 255 255
312 309 254 255 255 255
312 309 255 255 255 255
312 309 256 255 255 255
312 309 257 255 255 255
312 309 258 255 255 255
312 309 259 255 255 255
312 309 260 255 255 255
312 309 262 255 255 255
312 309 263 255 255 255
312 310 251 255 255 255
312 310 252 255 255 255
312 310 253 255 255 255
312 310 254 255 255 255
312 310 255 255 255 255
312 310 327 255 255 255
312 310 328 255 255 255
312 311 327 255 255 255
312 311 328 255 255 255
312 311 329 255 255 255
312 312 329 255 255 255
312 313 331 255 255 255
312 313 332 255 255 255
312 314 207 255 255 255
312 314 208 255 255 255
312 315 206 255 255 255
312 315 207 255 255 255
312 315 208 255 255 255
312 316 205 255 255 255
312 316 206 255 255 255
312 316 207 255 255 255
312 317 205 255 255 255
312 317 206 255 255 255
313 260 198 255 255 255
313 260 199 255 255 255
313 283 326 255 255 255
313 283 327 255 255 255
313 284 326 255 255 255
313 284 327 255 255 255
313 287 334 255 255 255
313 287 335 255 255 255
313 296 202 255 255 255
313 296 253 255 255 255
313 296 254 255 255 255
313 296 255 255 255 255
313 296 256 255 255 255
313 296 257 255 255 255
313 296 258 255 255 255
313 297 201 255 255 255
313 297 202 255 255 255
313 297 203 255 255 255
313 297 251 255 255 255
313 297 252 255 255 255
313 297 253 255 255 255
313 297 254 255 255 255
313 297 255 255 255 255
313 297 256 255 255 255
313 297 257 255 255 255
313 297 258 255 255 255
313 297 259 255 255 255
313 297 260 255 255 255
313 297 261 255 255 255
313 297 262 255 255 255
313 298 202 255 255 255
313 298 250 255 255 255
313 298 251 255 255 255
313 298 252 255 255 255
313 298 253 255 255 255
313 298 254 255 255 255
313 298 255 255 255 255
313 298 256 255 255 255
313 298 257 255 255 255
313 298 258 255 255 255
313 298 259 255 255 255
313 298 260 255 255 255
313 298 261 255 255 255
313 298 262 255 255 255
313 298 263 255 255 255
313 299 248 255 255 255
313 299 249 255 255 255
313 299 250 255 255 255
313 299 251 255 255 255
313 299 252 255 255 255
313 299 253 255 255 255
313 299 254 255 255 255
313 299 255 255 255 255
313 299 256 255 255 255
313 299 257 255 255 255
313 299 258 255 255 255
313 299 259 255 255 255
313 299 260 255 255 255
313 299 261 255 255 255
313 299 262 255 255 255
313 299 263 255 255 255
313 299 264 255 255 255
313 300 247 255 255 255
313 300 248 255 255 255
313 300 249 255 255 255
313 300 250 255 255 255
313 300 251 255 255 255
313 300 252 255 255 255
313 300 253 255 255 255
313 300 254 255 255 255
313 300 255 255 255 255
313 300 256 255 255 255
313 300 257 255 255 255
313 300 258 255 255 255
313 300 259 255 255 255
313 300 260 255 255 255
313 300 261 255 255 255
313 300 262 255 255 255
313 300 263 255 255 255
313 300 264 255 255 255
313 301 247 255 255 255
313 301 248 255 255 255
313 301 249 255 255 255
313 301 250 255 255 255
313 301 251 255 255 255
313 301 252 255 255 255
313 301 253 255 255 255
313 301 254 255 255 255
313 301 255 255 255 255
313 301 256 255 255 255
313 301 257 255 255 255
313 301 258 255 255 255
313 301 259 255 255 255
313 301 260 255 255 255
313 301 261 255 255 255
313 301 262 255 255 255
313 301 263 255 255 255
313 301 264 255 255 255
313 301 265 255 255 255
313 302 246 255 255 255
313 302 247 255 255 255
313 302 248 255 255 255
313 302 249 255 255 255
313 302 250 255 255 255
313 302 251 255 255 255
313 302 252 255 255 255
313 302 253 255 255 255
313 302 254 255 255 255
313 302 255 255 255 255
313 302 256 255 255 255
313 302 257 255 255 255
313 302 258 255 255 255
313 302 259 255 255 255
313 302 260 255 255 255
313 302 261 255 255 255
313 302 262 255 255 255
313 302 263 255 255 255
313 302 264 255 255 255
313 302 265 255 255 255
313 303 246 255 255 255
313 303 247 255 255 255
313 303 248 255 255 255
313 303 249 255 255 255
313 303 250 255 255 255
313 303 251 255 255 255
313 303 252 255 255 255
313 303 253 255 255 255
313 303 254 255 255 255
313 303 255 255 255 255
313 303 258 255 255 255
313 303 259 255 255 255
313 303 260 255 255 255
313 303 261 255 255 255
313 303 262 255 255 255
313 303 263 255 255 255
313 303 264 255 255 255
313 303 265 255 255 255
313 304 246 255 255 255
313 304 247 255 255 255
313 304 248 255 255 255
313 304 249 255 255 255
313 304 250 255 255 255
313 304 251 255 255 255
313 304 252 255 255 255
313 304 253 255 255 255
313 304 254 255 255 255
313 304 255 255 255 255
313 304 258 255 255 255
313 304 259 255 255 255
313 304 260 255 255 255
313 304 261 255 255 255
313 304 262 255 255 255
313 304 263 255 255 255
313 304 264 255 255 255
313 304 265 255 255 255
313 305 246 255 255 255
313 305 247 255 255 255
313 305 248 255 255 255
313 305 249 255 255 255
313 305 250 255 255 255
313 305 251 255 255 255
313 305 252 255 255 255
313 305 253 255 255 255
313 305 254 255 255 255
313 305 255 255 255 255
313 305 258 255 255 255
313 305 259 255 255 255
313 305 260 255 255 255
313 305 261 255 255 255
313 305 262 255 255 255
313 305 263 255 255 255
313 305 264 255 255 255
313 305 265 255 255 255
313 306 247 255 255 255
313 306 248 255 255 255
313 306 249 255 255 255
313 306 250 255 255 255
313 306 251 255 255 255
313 306 252 255 255 255
313 306 253 255 255 255
313 306 254 255 255 255
313 306 255 255 255 255
313 306 258 255 255 255
313 306 259 255 255 255
313 306 260 255 255 255
313 306 261 255 255 255
313 306 262 255 255 255
313 306 263 255 255 255
313 306 264 255 255 255
313 306 265 255 255 255
313 307 247 255 255 255
313 307 248 255 255 255
313 307 249 255 255 255
313 307 250 255 255 255
313 307 251 255 255 255
313 307 252 255 255 255
313 307 253 255 255 255
313 307 254 255 255 255
313 307 255 255 255 255
313 307 258 255 255 255
313 307 259 255 255 255
313 307 260 255 255 255
313 307 261 255 255 255
313 307 262 255 255 255
313 307 263 255 255 255
313 307 264 255 255 255
313 308 248 255 255 255
313 308 249 255 255 255
313 308 250 255 255 255
313 308 251 255 255 255
313 308 252 255 255 255
313 308 253 255 255 255
313 308 254 255 255 255
313 308 255 255 255 255
313 308 258 255 255 255
313 308 259 255 255 255
313 308 260 255 255 255
313 308 261 255 255 255
313 308 262 255 255 255
313 308 263 255 255 255
313 309 249 255 255 255
313 309 250 255 255 255
313 309 251 255 255 255
313 309 252 255 255 255
313 309 253 255 255 255
313 309 254 255 255 255
313 309 255 255 255 255
313 309 257 255 255 255
313 309 258 255 255 255
313 309 259 255 255 255
313 309 260 255 255 255
313 309 261 255 255 255
313 309 262 255 255 255
313 310 252 255 255 255
313 310 253 255 255 255
313 310 254 255 255 255
313 310 255 255 255 255
313 310 256 255 255 255
313 310 257 255 255 255
313 310 258 255 255 255
313 310 259 255 255 255
313 310 260 255 255 255
313 311 327 255 255 255
313 311 328 255 255 255
313 311 329 255 255 255
313 312 327 255 255 255
313 312 328 255 255 255
313 312 329 255 255 255
313 312 330 255 255 255
313 313 330 255 255 255
313 313 331 255 255 255
313 313 332 255 255 255
313 314 332 255 255 255
313 314 333 255 255 255
313 315 207 255 255 255
313 315 208 255 255 255
313 316 205 255 255 255
313 316 206 255 255 255
313 316 207 255 255 255
313 316 208 255 255 255
313 317 204 255 255 255
313 317 205 255 255 255
313 317 206 255 255 255
313 317 207 255 255 255
313 318 203 255 255 255
313 318 204 255 255 255
313 318 205 255 255 255
313 319 203 255 255 255
314 280 327 255 255 255
314 281 326 255 255 255
314 281 327 255 255 255
314 282 326 255 255 255
314 282 327 255 255 255
314 283 326 255 255 255
314 283 327 255 255 255
314 284 327 255 255 255
314 287 335 255 255 255
314 296 252 255 255 255
314 296 253 255 255 255
314 296 254 255 255 255
314 296 255 255 255 255
314 296 256 255 255 255
314 296 257 255 255 255
314 296 258 255 255 255
314 297 201 255 255 255
314 297 202 255 255 255
314 297 250 255 255 255
314 297 251 255 255 255
314 297 252 255 255 255
314 297 253 255 255 255
314 297 254 255 255 255
314 297 255 255 255 255
314 297 256 255 255 255
314 297 257 255 255 255
314 297 258 255 255 255
314 297 259 255 255 255
314 297 260 255 255 255
314 298 202 255 255 255
314 298 249 255 255 255
314 298 250 255 255 255
314 298 251 255 255 255
314 298 252 255 255 255
314 298 253 255 255 255
314 298 254 255 255 255
314 298 255 255 255 255
314 298 256 255 255 255
314 298 257 255 255 255
314 298 258 255 255 255
314 298 259 255 255 255
314 298 260 255 255 255
314 298 261 255 255 255
314 299 249 255 255 255
314 299 250 255 255 255
314 299 251 255 255 255
314 299 252 255 255 255
314 299 253 255 255 255
314 299 254 255 255 255
314 299 255 255 255 255
314 299 256 255 255 255
314 299 257 255 255 255
314 299 258 255 255 255
314 299 259 255 255 255
314 299 260 255 255 255
314 299 261 255 255 255
314 299 262 255 255 255
314 299 263 255 255 255
314 300 248 255 255 255
314 300 249 255 255 255
314 300 250 255 255 255
314 300 251 255 255 255
314 300 252 255 255 255
314 300 253 255 255 255
314 300 254 255 255 255
314 300 255 255 255 255
314 300 256 255 255 255
314 300 257 255 255 255
314 300 258 255 255 255
314 300 259 255 255 255
314 300 260 255 255 255
314 300 261 255 255 255
314 300 262 255 255 255
314 300 263 255 255 255
314 300 264 255 255 255
314 301 247 255 255 255
314 301 248 255 255 255
314 301 249 255 255 255
314 301 250 255 255 255
314 301 251 255 255 255
314 301 252 255 255 255
314 301 253 255 255 255
314 301 254 255 255 255
314 301 255 255 255 255
314 301 256 255 255 255
314 301 257 255 255 255
314 301 258 255 255 255
314 301 259 255 255 255
314 301 260 255 255 255
314 301 261 255 255 255
314 301 262 255 255 255
314 301 263 255 255 255
314 301 264 255 255 255
314 302 247 255 255 255
314 302 248 255 255 255
314 302 249 255 255 255
314 302 250 255 255 255
314 302 251 255 255 255
314 302 252 255 255 255
314 302 253 255 255 255
314 302 254 255 255 255
314 302 255 255 255 255
314 302 256 255 255 255
314 302 257 255 255 255
314 302 258 255 255 255
314 302 259 255 255 255
314 302 260 255 255 255
314 302 261 255 255 255
314 302 262 255 255 255
314 302 263 255 255 255
314 302 264 255 255 255
314 303 247 255 255 255
314 303 248 255 255 255
314 303 249 255 255 255
314 303 250 255 255 255
314 303 251 255 255 255
314 303 252 255 255 255
314 303 253 255 255 255
314 303 254 255 255 255
314 303 255 255 255 255
314 303 258 255 255 255
314 303 259 255 255 255
314 303 260 255 255 255
314 303 261 255 255 255
314 303 262 255 255 255
314 303 263 255 255 255
314 303 264 255 255 255
314 303 265 255 255 255
314 304 247 255 255 255
314 304 248 255 255 255
314 304 249 255 255 255
314 304 250 255 255 255
314 304 251 255 255 255
314 304 252 255 255 255
314 304 253 255 255 255
314 304 254 255 255 255
314 304 255 255 255 255
314 304 258 255 255 255
314 304 259 255 255 255
314 304 260 255 255 255
314 304 261 255 255 255
314 304 262 255 255 255
314 304 263 255 255 255
314 304 264 255 255 255
314 304 265 255 255 255
314 305 247 255 255 255
314 305 248 255 255 255
314 305 249 255 255 255
314 305 250 255 255 255
314 305 251 255 255 255
314 305 252 255 255 255
314 305 253 255 255 255
314 305 254 255 255 255
314 305 255 255 255 255
314 305 258 255 255 255
314 305 259 255 255 255
314 305 260 255 255 255
314 305 261 255 255 255
314 305 262 255 255 255
314 305 263 255 255 255
314 305 264 255 255 255
314 306 247 255 255 255
314 306 248 255 255 255
314 306 249 255 255 255
314 306 250 255 255 255
314 306 251 255 255 255
314 306 252 255 255 255
314 306 253 255 255 255
314 306 254 255 255 255
314 306 255 255 255 255
314 306 259 255 255 255
314 306 260 255 255 255
314 306 261 255 255 255
314 306 262 255 255 255
314 306 263 255 255 255
314 306 264 255 255 255
314 307 248 255 255 255
314 307 249 255 255 255
314 307 250 255 255 255
314 307 251 255 255 255
314 307 252 255 255 255
314 307 253 255 255 255
314 307 254 255 255 255
314 307 255 255 255 255
314 307 259 255 255 255
314 307 260 255 255 255
314 307 261 255 255 255
314 307 262 255 255 255
314 307 263 255 255 255
314 308 249 255 255 255
314 308 250 255 255 255
314 308 251 255 255 255
314 308 252 255 255 255
314 308 253 255 255 255
314 308 254 255 255 255
314 308 255 255 255 255
314 308 258 255 255 255
314 308 259 255 255 255
314 308 260 255 255 255
314 308 261 255 255 255
314 308 262 255 255 255
314 309 250 255 255 255
314 309 251 255 255 255
314 309 252 255 255 255
314 309 253 255 255 255
314 309 254 255 255 255
314 309 255 255 255 255
314 309 258 255 255 255
314 309 259 255 255 255
314 309 260 255 255 255
314 309 261 255 255 255
314 310 252 255 255 255
314 310 253 255 255 255
314 310 254 255 255 255
314 310 255 255 255 255
314 310 256 255 255 255
314 310 257 255 255 255
314 310 258 255 255 255
314 310 259 255 255 255
314 311 327 255 255 255
314 312 326 255 255 255
314 312 327 255 255 255
314 314 333 255 255 255
314 315 333 255 255 255
314 316 206 255 255 255
314 316 207 255 255 255
314 317 204 255 255 255
314 317 205 255 255 255
314 317 206 255 255 255
314 317 207 255 255 255
314 318 202 255 255 255
314 318 203 255 255 255
314 318 204 255 255 255
314 318 205 255 255 255
314 318 206 255 255 255
314 319 202 255 255 255
314 319 203 255 255 255
314 319 204 255 255 255
315 278 327 255 255 255
315 279 327 255 255 255
315 280 327 255 255 255
315 281 326 255 255 255
315 281 327 255 255 255
315 282 326 255 255 255
315 282 327 255 255 255
315 283 326 255 255 255
315 283 327 255 255 255
315 286 336 255 255 255
315 287 336 255 255 255
315 296 252 255 255 255
315 296 253 255 255 255
315 296 254 255 255 255
315 296 255 255 255 255
315 296 256 255 255 255
315 296 257 255 255 255
315 296 258 255 255 255
315 297 201 255 255 255
315 297 202 255 255 255
315 297 250 255 255 255
315 297 251 255 255 255
315 297 252 255 255 255
315 297 253 255 255 255
315 297 254 255 255 255
315 297 255 255 255 255
315 297 256 255 255 255
315 297 257 255 255 255
315 297 258 255 255 255
315 297 259 255 255 255
315 297 260 255 255 255
315 298 202 255 255 255
315 298 249 255 255 255
315 298 250 255 255 255
315 298 251 255 255 255
315 298 252 255 255 255
315 298 253 255 255 255
315 298 254 255 255 255
315 298 255 255 255 255
315 298 256 255 255 255
315 298 257 255 255 255
315 298 258 255 255 255
315 298 259 255 255 255
315 298 260 255 255 255
315 298 261 255 255 255
315 299 249 255 255 255
315 299 250 255 255 255
315 299 251 255 255 255
315 299 252 255 255 255
315 299 253 255 255 255
315 299 254 255 255 255
315 299 255 255 255 255
315 299 256 255 255 255
315 299 257 255 255 255
315 299 258 255 255 255
315 299 259 255 255 255
315 299 260 255 255 255
315 299 261 255 255 255
315 299 262 255 255 255
315 300 248 255 255 255
315 300 249 255 255 255
315 300 250 255 255 255
315 300 251 255 255 255
315 300 252 255 255 255
315 300 253 255 255 255
315 300 254 255 255 255
315 300 255 255 255 255
315 300 256 255 255 255
315 300 257 255 255 255
315 300 258 255 255 255
315 300 259 255 255 255
315 300 260 255 255 255
315 300 261 255 255 255
315 300 262 255 255 255
315 300 263 255 255 255
315 301 248 255 255 255
315 301 249 255 255 255
315 301 250 255 255 255
315 301 251 255 255 255
315 301 252 255 255 255
315 301 253 255 255 255
315 301 254 255 255 255
315 301 255 255 255 255
315 301 256 255 255 255
315 301 257 255 255 255
315 301 258 255 255 255
315 301 259 255 255 255
315 301 260 255 255 255
315 301 261 255 255 255
315 301 262 255 255 255
315 301 263 255 255 255
315 301 264 255 255 255
315 302 247 255 255 255
315 302 248 255 255 255
315 302 249 255 255 255
315 302 250 255 255 255
315 302 251 255 255 255
315 302 252 255 255 255
315 302 253 255 255 255
315 302 254 255 255 255
315 302 255 255 255 255
315 302 256 255 255 255
315 302 257 255 255 255
315 302 258 255 255 255
315 302 259 255 255 255
315 302 260 255 255 255
315 302 261 255 255 255
315 302 262 255 255 255
315 302 263 255 255 255
315 302 264 255 255 255
315 303 247 255 255 255
315 303 248 255 255 255
315 303 249 255 255 255
315 303 250 255 255 255
315 303 251 255 255 255
315 303 252 255 255 255
315 303 253 255 255 255
315 303 254 255 255 255
315 303 255 255 255 255
315 303 257 255 255 255
315 303 258 255 255 255
315 303 259 255 255 255
315 303 260 255 255 255
315 303 261 255 255 255
315 303 262 255 255 255
315 303 263 255 255 255
315 303 264 255 255 255
315 304 247 255 255 255
315 304 248 255 255 255
315 304 249 255 255 255
315 304 250 255 255 255
315 304 251 255 255 255
315 304 252 255 255 255
315 304 253 255 255 255
315 304 254 255 255 255
315 304 255 255 255 255
315 304 258 255 255 255
315 304 259 255 255 255
315 304 260 255 255 255
315 304 261 255 255 255
315 304 262 255 255 255
315 304 263 255 255 255
315 304 264 255 255 255
315 305 248 255 255 255
315 305 249 255 255 255
315 305 250 255 255 255
315 305 251 255 255 255
315 305 252 255 255 255
315 305 253 255 255 255
315 305 254 255 255 255
315 305 255 255 255 255
315 305 258 255 255 255
315 305 259 255 255 255
315 305 260 255 255 255
315 305 261 255 255 255
315 305 262 255 255 255
315 305 263 255 255 255
315 305 264 255 255 255
315 306 248 255 255 255
315 306 249 255 255 255
315 306 250 255 255 255
315 306 251 255 255 255
315 306 252 255 255 255
315 306 253 255 255 255
315 306 254 255 255 255
315 306 255 255 255 255
315 306 258 255 255 255
315 306 259 255 255 255
315 306 260 255 255 255
315 306 261 255 255 255
315 306 262 255 255 255
315 306 263 255 255 255
315 307 248 255 255 255
315 307 249 255 255 255
315 307 250 255 255 255
315 307 251 255 255 255
315 307 252 255 255 255
315 307 253 255 255 255
315 307 254 255 255 255
315 307 255 255 255 255
315 307 258 255 255 255
315 307 259 255 255 255
315 307 260 255 255 255
315 307 261 255 255 255
315 307 262 255 255 255
315 307 263 255 255 255
315 308 249 255 255 255
315 308 250 255 255 255
315 308 251 255 255 255
315 308 252 255 255 255
315 308 253 255 255 255
315 308 254 255 255 255
315 308 255 255 255 255
315 308 258 255 255 255
315 308 259 255 255 255
315 308 260 255 255 255
315 308 261 255 255 255
315 309 250 255 255 255
315 309 251 255 255 255
315 309 252 255 255 255
315 309 253 255 255 255
315 309 254 255 255 255
315 309 255 255 255 255
315 309 257 255 255 255
315 309 258 255 255 255
315 309 259 255 255 255
315 309 260 255 255 255
315 310 252 255 255 255
315 310 253 255 255 255
315 310 254 255 255 255
315 310 255 255 255 255
315 310 256 255 255 255
315 310 257 255 255 255
315 310 258 255 255 255
315 312 326 255 255 255
315 313 326 255 255 255
315 315 333 255 255 255
315 316 333 255 255 255
315 316 334 255 255 255
315 317 205 255 255 255
315 317 206 255 255 255
315 317 207 255 255 255
315 318 203 255 255 255
315 318 204 255 255 255
315 318 205 255 255 255
315 318 206 255 255 255
315 318 207 255 255 255
315 319 201 255 255 255
315 319 202 255 255 255
315 319 203 255 255 255
315 320 200 255 255 255
315 320 201 255 255 255
316 276 327 255 255 255
316 277 327 255 255 255
316 278 326 255 255 255
316 278 327 255 255 255
316 278 328 255 255 255
316 279 327 255 255 255
316 280 327 255 255 255
316 281 327 255 255 255
316 282 326 255 255 255
316 282 327 255 255 255
316 283 327 255 255 255
316 286 336 255 255 255
316 286 337 255 255 255
316 296 252 255 255 255
316 296 253 255 255 255
316 296 254 255 255 255
316 296 255 255 255 255
316 296 256 255 255 255
316 296 257 255 255 255
316 296 258 255 255 255
316 297 201 255 255 255
316 297 202 255 255 255
316 297 250 255 255 255
316 297 251 255 255 255
316 297 252 255 255 255
316 297 253 255 255 255
316 297 254 255 255 255
316 297 255 255 255 255
316 297 256 255 255 255
316 297 257 255 255 255
316 297 258 255 255 255
316 297 259 255 255 255
316 297 260 255 255 255
316 298 201 255 255 255
316 298 202 255 255 255
316 298 249 255 255 255
316 298 250 255 255 255
316 298 251 255 255 255
316 298 252 255 255 255
316 298 253 255 255 255
316 298 254 255 255 255
316 298 255 255 255 255
316 298 256 255 255 255
316 298 257 255 255 255
316 298 258 255 255 255
316 298 259 255 255 255
316 298 260 255 255 255
316 298 261 255 255 255
316 299 248 255 255 255
316 299 249 255 255 255
316 299 250 255 255 255
316 299 251 255 255 255
316 299 252 255 255 255
316 299 253 255 255 255
316 299 254 255 255 255
316 299 255 255 255 255
316 299 256 255 255 255
316 299 257 255 255 255
316 299 258 255 255 255
316 299 259 255 255 255
316 299 260 255 255 255
316 299 261 255 255 255
316 300 248 255 255 255
316 300 249 255 255 255
316 300 250 255 255 255
316 300 251 255 255 255
316 300 252 255 255 255
316 300 253 255 255 255
316 300 254 255 255 255
316 300 255 255 255 255
316 300 256 255 255 255
316 300 257 255 255 255
316 300 258 255 255 255
316 300 259 255 255 255
316 300 260 255 255 255
316 300 261 255 255 255
316 300 262 255 255 255
316 301 248 255 255 255
316 301 249 255 255 255
316 301 250 255 255 255
316 301 251 255 255 255
316 301 252 255 255 255
316 301 253 255 255 255
316 301 254 255 255 255
316 301 255 255 255 255
316 301 256 255 255 255
316 301 257 255 255 255
316 301 258 255 255 255
316 301 259 255 255 255
316 301 260 255 255 255
316 301 261 255 255 255
316 301 262 255 255 255
316 302 247 255 255 255
316 302 248 255 255 255
316 302 249 255 255 255
316 302 250 255 255 255
316 302 251 255 255 255
316 302 252 255 255 255
316 302 253 255 255 255
316 302 254 255 255 255
316 302 255 255 255 255
316 302 256 255 255 255
316 302 257 255 255 255
316 302 258 255 255 255
316 302 259 255 255 255
316 302 260 255 255 255
316 302 261 255 255 255
316 302 262 255 255 255
316 302 263 255 255 255
316 303 247 255 255 255
316 303 248 255 255 255
316 303 249 255 255 255
316 303 250 255 255 255
316 303 251 255 255 255
316 303 252 255 255 255
316 303 253 255 255 255
316 303 254 255 255 255
316 303 255 255 255 255
316 303 257 255 255 255
316 303 258 255 255 255
316 303 259 255 255 255
316 303 260 255 255 255
316 303 261 255 255 255
316 303 262 255 255 255
316 303 263 255 255 255
316 304 247 255 255 255
316 304 248 255 255 255
316 304 249 255 255 255
316 304 250 255 255 255
316 304 251 255 255 255
316 304 252 255 255 255
316 304 253 255 255 255
316 304 254 255 255 255
316 304 255 255 255 255
316 304 257 255 255 255
316 304 258 255 255 255
316 304 259 255 255 255
316 304 260 255 255 255
316 304 261 255 255 255
316 304 262 255 255 255
316 304 263 255 255 255
316 305 248 255 255 255
316 305 249 255 255 255
316 305 250 255 255 255
316 305 251 255 255 255
316 305 252 255 255 255
316 305 253 255 255 255
316 305 254 255 255 255
316 305 255 255 255 255
316 305 258 255 255 255
316 305 259 255 255 255
316 305 260 255 255 255
316 305 261 255 255 255
316 305 262 255 255 255
316 306 248 255 255 255
316 306 249 255 255 255
316 306 250 255 255 255
316 306 251 255 255 255
316 306 252 255 255 255
316 306 253 255 255 255
316 306 254 255 255 255
316 306 255 255 255 255
316 306 258 255 255 255
316 306 259 255 255 255
316 306 260 255 255 255
316 306 261 255 255 255
316 306 262 255 255 255
316 307 248 255 255 255
316 307 249 255 255 255
316 307 250 255 255 255
316 307 251 255 255 255
316 307 252 255 255 255
316 307 253 255 255 255
316 307 254 255 255 255
316 307 255 255 255 255
316 307 258 255 255 255
316 307 259 255 255 255
316 307 260 255 255 255
316 307 261 255 255 255
316 308 249 255 255 255
316 308 250 255 255 255
316 308 251 255 255 255
316 308 252 255 255 255
316 308 253 255 255 255
316 308 254 255 255 255
316 308 255 255 255 255
316 308 257 255 255 255
316 308 258 255 255 255
316 308 259 255 255 255
316 308 260 255 255 255
316 308 261 255 255 255
316 309 250 255 255 255
316 309 251 255 255 255
316 309 252 255 255 255
316 309 253 255 255 255
316 309 254 255 255 255
316 309 255 255 255 255
316 309 256 255 255 255
316 309 257 255 255 255
316 309 258 255 255 255
316 309 259 255 255 255
316 309 260 255 255 255
316 310 252 255 255 255
316 310 253 255 255 255
316 310 254 255 255 255
316 310 255 255 255 255
316 310 256 255 255 255
316 310 257 255 255 255
316 310 258 255 255 255
316 313 325 255 255 255
316 313 326 255 255 255
316 316 334 255 255 255
316 317 206 255 255 255
316 318 206 255 255 255
316 318 207 255 255 255
316 320 199 255 255 255
316 320 200 255 255 255
316 320 201 255 255 255
316 321 199 255 255 255
316 321 200 255 255 255
317 274 327 255 255 255
317 275 326 255 255 255
317 275 327 255 255 255
317 275 328 255 255 255
317 276 326 255 255 255
317 276 327 255 255 255
317 276 328 255 255 255
317 277 327 255 255 255
317 282 326 255 255 255
317 282 327 255 255 255
317 283 326 255 255 255
317 283 327 255 255 255
317 286 337 255 255 255
317 286 338 255 255 255
317 296 251 255 255 255
317 296 252 255 255 255
317 296 253 255 255 255
317 296 254 255 255 255
317 296 255 255 255 255
317 296 256 255 255 255
317 296 257 255 255 255
317 296 258 255 255 255
317 297 201 255 255 255
317 297 202 255 255 255
317 297 250 255 255 255
317 297 251 255 255 255
317 297 252 255 255 255
317 297 253 255 255 255
317 297 254 255 255 255
317 297 255 255 255 255
317 297 256 255 255 255
317 297 257 255 255 255
317 297 258 255 255 255
317 297 259 255 255 255
317 297 260 255 255 255
317 298 201 255 255 255
317 298 202 255 255 255
317 298 249 255 255 255
317 298 250 255 255 255
317 298 251 255 255 255
317 298 252 255 255 255
317 298 253 255 255 255
317 298 254 255 255 255
317 298 255 255 255 255
317 298 256 255 255 255
317 298 257 255 255 255
317 298 258 255 255 255
317 298 259 255 255 255
317 298 260 255 255 255
317 298 261 255 255 255
317 299 248 255 255 255
317 299 249 255 255 255
317 299 250 255 255 255
317 299 251 255 255 255
317 299 252 255 255 255
317 299 253 255 255 255
317 299 254 255 255 255
317 299 255 255 255 255
317 299 256 255 255 255
317 299 257 255 255 255
317 299 258 255 255 255
317 299 259 255 255 255
317 299 260 255 255 255
317 299 261 255 255 255
317 300 248 255 255 255
317 300 249 255 255 255
317 300 250 255 255 255
317 300 251 255 255 255
317 300 252 255 255 255
317 300 253 255 255 255
317 300 254 255 255 255
317 300 255 255 255 255
317 300 256 255 255 255
317 300 257 255 255 255
317 300 258 255 255 255
317 300 259 255 255 255
317 300 260 255 255 255
317 300 261 255 255 255
317 300 262 255 255 255
317 301 247 255 255 255
317 301 248 255 255 255
317 301 249 255 255 255
317 301 250 255 255 255
317 301 251 255 255 255
317 301 252 255 255 255
317 301 253 255 255 255
317 301 254 255 255 255
317 301 255 255 255 255
317 301 256 255 255 255
317 301 257 255 255 255
317 301 258 255 255 255
317 301 259 255 255 255
317 301 260 255 255 255
317 301 261 255 255 255
317 301 262 255 255 255
317 302 247 255 255 255
317 302 248 255 255 255
317 302 249 255 255 255
317 302 250 255 255 255
317 302 251 255 255 255
317 302 252 255 255 255
317 302 253 255 255 255
317 302 254 255 255 255
317 302 255 255 255 255
317 302 256 255 255 255
317 302 257 255 255 255
317 302 258 255 255 255
317 302 259 255 255 255
317 302 260 255 255 255
317 302 261 255 255 255
317 302 262 255 255 255
317 303 247 255 255 255
317 303 248 255 255 255
317 303 249 255 255 255
317 303 250 255 255 255
317 303 251 255 255 255
317 303 252 255 255 255
317 303 253 255 255 255
317 303 254 255 255 255
317 303 255 255 255 255
317 303 256 255 255 255
317 303 257 255 255 255
317 303 258 255 255 255
317 303 259 255 255 255
317 303 260 255 255 255
317 303 261 255 255 255
317 303 262 255 255 255
317 304 247 255 255 255
317 304 248 255 255 255
317 304 249 255 255 255
317 304 250 255 255 255
317 304 251 255 255 255
317 304 252 255 255 255
317 304 253 255 255 255
317 304 254 255 255 255
317 304 255 255 255 255
317 304 257 255 255 255
317 304 258 255 255 255
317 304 259 255 255 255
317 304 260 255 255 255
317 304 261 255 255 255
317 304 262 255 255 255
317 305 247 255 255 255
317 305 248 255 255 255
317 305 249 255 255 255
317 305 250 255 255 255
317 305 251 255 255 255
317 305 252 255 255 255
317 305 253 255 255 255
317 305 254 255 255 255
317 305 255 255 255 255
317 305 257 255 255 255
317 305 258 255 255 255
317 305 259 255 255 255
317 305 260 255 255 255
317 305 261 255 255 255
317 305 262 255 255 255
317 306 248 255 255 255
317 306 249 255 255 255
317 306 250 255 255 255
317 306 251 255 255 255
317 306 252 255 255 255
317 306 253 255 255 255
317 306 254 255 255 255
317 306 255 255 255 255
317 306 257 255 255 255
317 306 258 255 255 255
317 306 259 255 255 255
317 306 260 255 255 255
317 306 261 255 255 255
317 306 262 255 255 255
317 307 248 255 255 255
317 307 249 255 255 255
317 307 250 255 255 255
317 307 251 255 255 255
317 307 252 255 255 255
317 307 253 255 255 255
317 307 254 255 255 255
317 307 255 255 255 255
317 307 257 255 255 255
317 307 258 255 255 255
317 307 259 255 255 255
317 307 260 255 255 255
317 307 261 255 255 255
317 308 249 255 255 255
317 308 250 255 255 255
317 308 251 255 255 255
317 308 252 255 255 255
317 308 253 255 255 255
317 308 254 255 255 255
317 308 255 255 255 255
317 308 256 255 255 255
317 308 257 255 255 255
317 308 258 255 255 255
317 308 259 255 255 255
317 308 260 255 255 255
317 308 261 255 255 255
317 309 250 255 255 255
317 309 251 255 255 255
317 309 252 255 255 255
317 309 253 255 255 255
317 309 254 255 255 255
317 309 255 255 255 255
317 309 256 255 255 255
317 309 257 255 255 255
317 309 258 255 255 255
317 309 259 255 255 255
317 309 260 255 255 255
317 310 251 255 255 255
317 310 252 255 255 255
317 310 253 255 255 255
317 310 254 255 255 255
317 310 255 255 255 255
317 310 256 255 255 255
317 310 257 255 255 255
317 310 258 255 255 255
317 311 254 255 255 255
317 311 255 255 255 255
317 313 326 255 255 255
317 314 325 255 255 255
317 316 334 255 255 255
317 316 335 255 255 255
317 317 335 255 255 255
317 318 206 255 255 255
317 319 206 255 255 255
317 320 199 255 255 255
317 321 198 255 255 255
317 321 199 255 255 255
317 321 200 255 255 255
317 322 197 255 255 255
317 322 198 255 255 255
317 322 199 255 255 255
318 272 327 255 255 255
318 273 326 255 255 255
318 273 327 255 255 255
318 274 326 255 255 255
318 274 327 255 255 255
318 274 328 255 255 255
318 275 327 255 255 255
318 275 328 255 255 255
318 276 327 255 255 255
318 282 326 255 255 255
318 283 326 255 255 255
318 283 327 255 255 255
318 286 337 255 255 255
318 286 338 255 255 255
318 296 251 255 255 255
318 296 252 255 255 255
318 296 253 255 255 255
318 296 254 255 255 255
318 296 255 255 255 255
318 296 256 255 255 255
318 296 257 255 255 255
318 296 258 255 255 255
318 297 201 255 255 255
318 297 250 255 255 255
318 297 251 255 255 255
318 297 252 255 255 255
318 297 253 255 255 255
318 297 254 255 255 255
318 297 255 255 255 255
318 297 256 255 255 255
318 297 257 255 255 255
318 297 258 255 255 255
318 297 259 255 255 255
318 298 201 255 255 255
318 298 202 255 255 255
318 298 249 255 255 255
318 298 250 255 255 255
318 298 251 255 255 255
318 298 252 255 255 255
318 298 253 255 255 255
318 298 254 255 255 255
318 298 255 255 255 255
318 298 256 255 255 255
318 298 257 255 255 255
318 298 258 255 255 255
318 298 259 255 255 255
318 298 260 255 255 255
318 299 248 255 255 255
318 299 249 255 255 255
318 299 250 255 255 255
318 299 251 255 255 255
318 299 252 255 255 255
318 299 253 255 255 255
318 299 254 255 255 255
318 299 255 255 255 255
318 299 256 255 255 255
318 299 257 255 255 255
318 299 258 255 255 255
318 299 259 255 255 255
318 299 260 255 255 255
318 299 261 255 255 255
318 300 248 255 255 255
318 300 249 255 255 255
318 300 250 255 255 255
318 300 251 255 255 255
318 300 252 255 255 255
318 300 253 255 255 255
318 300 254 255 255 255
318 300 255 255 255 255
318 300 256 255 255 255
318 300 257 255 255 255
318 300 258 255 255 255
318 300 259 255 255 255
318 300 260 255 255 255
318 300 261 255 255 255
318 300 262 255 255 255
318 301 247 255 255 255
318 301 248 255 255 255
318 301 249 255 255 255
318 301 250 255 255 255
318 301 251 255 255 255
318 301 252 255 255 255
318 301 253 255 255 255
318 301 254 255 255 255
318 301 255 255 255 255
318 301 256 255 255 255
318 301 257 255 255 255
318 301 258 255 255 255
318 301 259 255 255 255
318 301 260 255 255 255
318 301 261 255 255 255
318 301 262 255 255 255
318 302 247 255 255 255
318 302 248 255 255 255
318 302 249 255 255 255
318 302 250 255 255 255
318 302 251 255 255 255
318 302 252 255 255 255
318 302 253 255 255 255
318 302 254 255 255 255
318 302 255 255 255 255
318 302 256 255 255 255
318 302 257 255 255 255
318 302 258 255 255 255
318 302 259 255 255 255
318 302 260 255 255 255
318 302 261 255 255 255
318 302 262 255 255 255
318 303 247 255 255 255
318 303 248 255 255 255
318 303 249 255 255 255
318 303 250 255 255 255
318 303 251 255 255 255
318 303 252 255 255 255
318 303 253 255 255 255
318 303 254 255 255 255
318 303 255 255 255 255
318 303 256 255 255 255
318 303 257 255 255 255
318 303 258 255 255 255
318 303 259 255 255 255
318 303 260 255 255 255
318 303 261 255 255 255
318 303 262 255 255 255
318 304 247 255 255 255
318 304 248 255 255 255
318 304 249 255 255 255
318 304 250 255 255 255
318 304 251 255 255 255
318 304 252 255 255 255
318 304 253 255 255 255
318 304 254 255 255 255
318 304 255 255 255 255
318 304 256 255 255 255
318 304 257 255 255 255
318 304 258 255 255 255
318 304 259 255 255 255
318 304 260 255 255 255
318 304 261 255 255 255
318 304 262 255 255 255
318 305 247 255 255 255
318 305 248 255 255 255
318 305 249 255 255 255
318 305 250 255 255 255
318 305 251 255 255 255
318 305 252 255 255 255
318 305 253 255 255 255
318 305 254 255 255 255
318 305 255 255 255 255
318 305 256 255 255 255
318 305 257 255 255 255
318 305 258 255 255 255
318 305 259 255 255 255
318 305 260 255 255 255
318 305 261 255 255 255
318 305 262 255 255 255
318 306 247 255 255 255
318 306 248 255 255 255
318 306 249 255 255 255
318 306 250 255 255 255
318 306 251 255 255 255
318 306 252 255 255 255
318 306 253 255 255 255
318 306 254 255 255 255
318 306 255 255 255 255
318 306 256 255 255 255
318 306 257 255 255 255
318 306 258 255 255 255
318 306 259 255 255 255
318 306 260 255 255 255
318 306 261 255 255 255
318 306 262 255 255 255
318 307 248 255 255 255
318 307 249 255 255 255
318 307 250 255 255 255
318 307 251 255 255 255
318 307 252 255 255 255
318 307 253 255 255 255
318 307 254 255 255 255
318 307 255 255 255 255
318 307 256 255 255 255
318 307 257 255 255 255
318 307 258 255 255 255
318 307 259 255 255 255
318 307 260 255 255 255
318 307 261 255 255 255
318 308 249 255 255 255
318 308 250 255 255 255
318 308 251 255 255 255
318 308 252 255 255 255
318 308 253 255 255 255
318 308 254 255 255 255
318 308 255 255 255 255
318 308 256 255 255 255
318 308 257 255 255 255
318 308 258 255 255 255
318 308 259 255 255 255
318 308 260 255 255 255
318 308 261 255 255 255
318 309 249 255 255 255
318 309 250 255 255 255
318 309 251 255 255 255
318 309 252 255 255 255
318 309 253 255 255 255
318 309 254 255 255 255
318 309 255 255 255 255
318 309 256 255 255 255
318 309 257 255 255 255
318 309 258 255 255 255
318 309 259 255 255 255
318 309 260 255 255 255
318 310 251 255 255 255
318 310 252 255 255 255
318 310 253 255 255 255
318 310 254 255 255 255
318 310 255 255 255 255
318 310 256 255 255 255
318 310 257 255 255 255
318 310 258 255 255 255
318 311 253 255 255 255
318 311 254 255 255 255
318 311 255 255 255 255
318 311 256 255 255 255
318 313 326 255 255 255
318 317 335 255 255 255
318 317 336 255 255 255
318 318 206 255 255 255
318 318 336 255 255 255
318 319 205 255 255 255
318 319 206 255 255 255
318 322 197 255 255 255
318 322 198 255 255 255
318 323 196 255 255 255
318 323 197 255 255 255
318 325 193 255 255 255
318 325 194 255 255 255
318 326 193 255 255 255
318 326 194 255 255 255
319 271 327 255 255 255
319 272 326 255 255 255
319 272 327 255 255 255
319 272 328 255 255 255
319 273 326 255 255 255
319 273 327 255 255 255
319 273 328 255 255 255
319 274 327 255 255 255
319 283 326 255 255 255
319 286 338 255 255 255
319 286 339 255 255 255
319 296 251 255 255 255
319 296 252 255 255 255
319 296 253 255 255 255
319 296 254 255 255 255
319 296 255 255 255 255
319 296 256 255 255 255
319 296 257 255 255 255
319 296 258 255 255 255
319 297 250 255 255 255
319 297 251 255 255 255
319 297 252 255 255 255
319 297 253 255 255 255
319 297 254 255 255 255
319 297 255 255 255 255
319 297 256 255 255 255
319 297 257 255 255 255
319 297 258 255 255 255
319 297 259 255 255 255
319 298 200 255 255 255
319 298 201 255 255 255
319 298 202 255 255 255
319 298 249 255 255 255
319 298 250 255 255 255
319 298 251 255 255 255
319 298 252 255 255 255
319 298 253 255 255 255
319 298 254 255 255 255
319 298 255 255 255 255
319 298 256 255 255 255
319 298 257 255 255 255
319 298 258 255 255 255
319 298 259 255 255 255
319 298 260 255 255 255
319 299 201 255 255 255
319 299 248 255 255 255
319 299 249 255 255 255
319 299 250 255 255 255
319 299 251 255 255 255
319 299 252 255 255 255
319 299 253 255 255 255
319 299 254 255 255 255
319 299 255 255 255 255
319 299 256 255 255 255
319 299 257 255 255 255
319 299 258 255 255 255
319 299 259 255 255 255
319 299 260 255 255 255
319 299 261 255 255 255
319 300 247 255 255 255
319 300 248 255 255 255
319 300 249 255 255 255
319 300 250 255 255 255
319 300 251 255 255 255
319 300 252 255 255 255
319 300 253 255 255 255
319 300 254 255 255 255
319 300 255 255 255 255
319 300 256 255 255 255
319 300 257 255 255 255
319 300 258 255 255 255
319 300 259 255 255 255
319 300 260 255 255 255
319 300 261 255 255 255
319 301 247 255 255 255
319 301 248 255 255 255
319 301 249 255 255 255
319 301 250 255 255 255
319 301 251 255 255 255
319 301 252 255 255 255
319 301 253 255 255 255
319 301 254 255 255 255
319 301 255 255 255 255
319 301 256 255 255 255
319 301 257 255 255 255
319 301 258 255 255 255
319 301 259 255 255 255
319 301 260 255 255 255
319 301 261 255 255 255
319 301 262 255 255 255
319 302 247 255 255 255
319 302 248 255 255 255
319 302 249 255 255 255
319 302 250 255 255 255
319 302 251 255 255 255
319 302 252 255 255 255
319 302 253 255 255 255
319 302 254 255 255 255
319 302 255 255 255 255
319 302 256 255 255 255
319 302 257 255 255 255
319 302 258 255 255 255
319 302 259 255 255 255
319 302 260 255 255 255
319 302 261 255 255 255
319 302 262 255 255 255
319 303 247 255 255 255
319 303 248 255 255 255
319 303 249 255 255 255
319 303 250 255 255 255
319 303 251 255 255 255
319 303 252 255 255 255
319 303 253 255 255 255
319 303 254 255 255 255
319 303 255 255 255 255
319 303 256 255 255 255
319 303 257 255 255 255
319 303 258 255 255 255
319 303 259 255 255 255
319 303 260 255 255 255
319 303 261 255 255 255
319 303 262 255 255 255
319 304 247 255 255 255
319 304 248 255 255 255
319 304 249 255 255 255
319 304 250 255 255 255
319 304 251 255 255 255
319 304 252 255 255 255
319 304 253 255 255 255
319 304 254 255 255 255
319 304 255 255 255 255
319 304 256 255 255 255
319 304 257 255 255 255
319 304 258 255 255 255
319 304 259 255 255 255
319 304 260 255 255 255
319 304 261 255 255 255
319 304 262 255 255 255
319 305 247 255 255 255
319 305 248 255 255 255
319 305 249 255 255 255
319 305 250 255 255 255
319 305 251 255 255 255
319 305 252 255 255 255
319 305 253 255 255 255
319 305 254 255 255 255
319 305 255 255 255 255
319 305 256 255 255 255
319 305 257 255 255 255
319 305 258 255 255 255
319 305 259 255 255 255
319 305 260 255 255 255
319 305 261 255 255 255
319 305 262 255 255 255
319 306 247 255 255 255
319 306 248 255 255 255
319 306 249 255 255 255
319 306 250 255 255 255
319 306 251 255 255 255
319 306 252 255 255 255
319 306 253 255 255 255
319 306 254 255 255 255
319 306 255 255 255 255
319 306 256 255 255 255
319 306 257 255 255 255
319 306 258 255 255 255
319 306 259 255 255 255
319 306 260 255 255 255
319 306 261 255 255 255
319 306 262 255 255 255
319 307 248 255 255 255
319 307 249 255 255 255
319 307 250 255 255 255
319 307 251 255 255 255
319 307 252 255 255 255
319 307 253 255 255 255
319 307 254 255 255 255
319 307 255 255 255 255
319 307 256 255 255 255
319 307 257 255 255 255
319 307 258 255 255 255
319 307 259 255 255 255
319 307 260 255 255 255
319 307 261 255 255 255
319 308 248 255 255 255
319 308 249 255 255 255
319 308 250 255 255 255
319 308 251 255 255 255
319 308 252 255 255 255
319 308 253 255 255 255
319 308 254 255 255 255
319 308 255 255 255 255
319 308 256 255 255 255
319 308 257 255 255 255
319 308 258 255 255 255
319 308 259 255 255 255
319 308 260 255 255 255
319 309 249 255 255 255
319 309 250 255 255 255
319 309 251 255 255 255
319 309 252 255 255 255
319 309 253 255 255 255
319 309 254 255 255 255
319 309 255 255 255 255
319 309 256 255 255 255
319 309 257 255 255 255
319 309 258 255 255 255
319 309 259 255 255 255
319 309 260 255 255 255
319 310 250 255 255 255
319 310 251 255 255 255
319 310 252 255 255 255
319 310 253 255 255 255
