ply
format ascii 1.0
element vertex 1992
comment vertices
property float x
property float y
property float z
property uchar red
property uchar green
property uchar blue
end_header
247 311 215 255 255 255
247 311 216 255 255 255
247 311 217 255 255 255
247 311 218 255 255 255
247 311 219 255 255 255
247 311 220 255 255 255
247 311 221 255 255 255
247 311 308 255 255 255
247 311 309 255 255 255
247 311 310 255 255 255
247 311 311 255 255 255
247 311 312 255 255 255
247 311 313 255 255 255
247 311 314 255 255 255
247 311 315 255 255 255
247 311 316 255 255 255
247 311 317 255 255 255
247 312 214 255 255 255
247 312 215 255 255 255
247 312 216 255 255 255
247 312 217 255 255 255
247 312 218 255 255 255
247 312 219 255 255 255
247 312 307 255 255 255
247 312 308 255 255 255
247 312 309 255 255 255
247 312 310 255 255 255
247 312 311 255 255 255
247 312 312 255 255 255
247 312 313 255 255 255
247 312 314 255 255 255
247 312 315 255 255 255
247 312 316 255 255 255
247 312 317 255 255 255
247 313 214 255 255 255
247 313 215 255 255 255
247 313 216 255 255 255
247 313 217 255 255 255
247 313 218 255 255 255
247 313 307 255 255 255
247 313 308 255 255 255
247 313 309 255 255 255
247 313 310 255 255 255
247 313 311 255 255 255
247 313 312 255 255 255
247 313 313 255 255 255
247 313 314 255 255 255
247 313 315 255 255 255
247 313 316 255 255 255
247 313 317 255 255 255
247 314 214 255 255 255
247 314 215 255 255 255
247 314 216 255 255 255
247 314 217 255 255 255
247 314 308 255 255 255
247 314 309 255 255 255
247 314 310 255 255 255
247 314 311 255 255 255
247 314 312 255 255 255
247 314 313 255 255 255
247 314 314 255 255 255
247 314 315 255 255 255
247 314 316 255 255 255
247 314 317 255 255 255
247 315 214 255 255 255
247 315 215 255 255 255
247 315 216 255 255 255
247 315 309 255 255 255
247 315 310 255 255 255
247 315 311 255 255 255
247 315 312 255 255 255
247 315 313 255 255 255
247 315 314 255 255 255
247 315 315 255 255 255
247 315 316 255 255 255
247 315 317 255 255 255
247 316 213 255 255 255
247 316 214 255 255 255
247 316 215 255 255 255
247 316 216 255 255 255
247 316 309 255 255 255
247 316 310 255 255 255
247 317 212 255 255 255
247 317 213 255 255 255
247 317 214 255 255 255
247 317 215 255 255 255
247 318 211 255 255 255
247 318 212 255 255 255
247 318 213 255 255 255
247 318 214 255 255 255
247 319 209 255 255 255
247 319 210 255 255 255
247 319 211 255 255 255
247 319 212 255 255 255
247 319 213 255 255 255
247 320 208 255 255 255
247 320 209 255 255 255
247 320 210 255 255 255
247 320 211 255 255 255
247 320 212 255 255 255
247 321 208 255 255 255
247 321 209 255 255 255
247 321 210 255 255 255
247 321 211 255 255 255
247 322 208 255 255 255
247 322 209 255 255 255
247 322 210 255 255 255
247 323 207 255 255 255
247 323 208 255 255 255
247 323 209 255 255 255
247 324 207 255 255 255
247 324 208 255 255 255
247 324 209 255 255 255
247 325 216 255 255 255
247 325 217 255 255 255
247 325 218 255 255 255
247 326 216 255 255 255
247 326 217 255 255 255
247 326 218 255 255 255
247 327 216 255 255 255
247 327 217 255 255 255
247 327 218 255 255 255
247 327 219 255 255 255
247 327 310 255 255 255
247 327 311 255 255 255
247 328 200 255 255 255
247 328 201 255 255 255
247 328 218 255 255 255
247 328 219 255 255 255
247 328 310 255 255 255
247 328 311 255 255 255
247 329 197 255 255 255
247 329 198 255 255 255
247 329 199 255 255 255
247 329 200 255 255 255
247 330 195 255 255 255
247 330 196 255 255 255
247 330 197 255 255 255
247 330 198 255 255 255
247 331 193 255 255 255
247 331 194 255 255 255
247 331 195 255 255 255
247 331 196 255 255 255
247 332 193 255 255 255
247 332 194 255 255 255
247 333 192 255 255 255
247 333 193 255 255 255
247 333 194 255 255 255
247 334 192 255 255 255
247 334 193 255 255 255
247 335 192 255 255 255
247 336 191 255 255 255
247 336 192 255 255 255
247 337 190 255 255 255
247 337 191 255 255 255
247 337 192 255 255 255
247 338 190 255 255 255
247 338 191 255 255 255
247 339 189 255 255 255
247 339 190 255 255 255
247 340 189 255 255 255
247 340 190 255 255 255
247 341 188 255 255 255
247 341 189 255 255 255
247 342 187 255 255 255
247 342 188 255 255 255
247 343 187 255 255 255
248 261 347 255 255 255
248 262 346 255 255 255
248 262 347 255 255 255
248 263 346 255 255 255
248 263 347 255 255 255
248 264 345 255 255 255
248 264 346 255 255 255
248 264 347 255 255 255
248 265 344 255 255 255
248 265 345 255 255 255
248 265 346 255 255 255
248 266 343 255 255 255
248 266 344 255 255 255
248 266 345 255 255 255
248 267 343 255 255 255
248 267 344 255 255 255
248 267 345 255 255 255
248 267 349 255 255 255
248 268 342 255 255 255
248 268 343 255 255 255
248 268 344 255 255 255
248 268 345 255 255 255
248 268 346 255 255 255
248 268 347 255 255 255
248 268 348 255 255 255
248 268 349 255 255 255
248 269 342 255 255 255
248 269 343 255 255 255
248 269 344 255 255 255
248 269 345 255 255 255
248 269 346 255 255 255
248 269 347 255 255 255
248 270 341 255 255 255
248 270 342 255 255 255
248 270 343 255 255 255
248 270 344 255 255 255
248 270 345 255 255 255
248 270 346 255 255 255
248 272 182 255 255 255
248 272 183 255 255 255
248 273 182 255 255 255
248 273 183 255 255 255
248 274 181 255 255 255
248 274 182 255 255 255
248 274 183 255 255 255
248 274 184 255 255 255
248 275 179 255 255 255
248 275 180 255 255 255
248 275 181 255 255 255
248 275 182 255 255 255
248 275 183 255 255 255
248 275 184 255 255 255
248 275 185 255 255 255
248 275 186 255 255 255
248 276 180 255 255 255
248 276 181 255 255 255
248 277 334 255 255 255
248 277 335 255 255 255
248 278 333 255 255 255
248 278 334 255 255 255
248 278 335 255 255 255
248 279 333 255 255 255
248 279 334 255 255 255
248 279 335 255 255 255
248 279 336 255 255 255
248 280 334 255 255 255
248 280 335 255 255 255
248 294 218 255 255 255
248 294 219 255 255 255
248 294 220 255 255 255
248 294 221 255 255 255
248 295 218 255 255 255
248 295 219 255 255 255
248 295 220 255 255 255
248 295 221 255 255 255
248 295 222 255 255 255
248 296 217 255 255 255
248 296 218 255 255 255
248 296 219 255 255 255
248 296 220 255 255 255
248 296 221 255 255 255
248 296 222 255 255 255
248 296 223 255 255 255
248 296 224 255 255 255
248 297 217 255 255 255
248 297 218 255 255 255
248 297 219 255 255 255
248 297 220 255 255 255
248 297 221 255 255 255
248 297 222 255 255 255
248 297 223 255 255 255
248 297 224 255 255 255
248 297 225 255 255 255
248 297 226 255 255 255
248 297 227 255 255 255
248 298 217 255 255 255
248 298 218 255 255 255
248 298 219 255 255 255
248 298 220 255 255 255
248 298 221 255 255 255
248 298 222 255 255 255
248 298 223 255 255 255
248 298 224 255 255 255
248 298 225 255 255 255
248 298 226 255 255 255
248 298 227 255 255 255
248 298 228 255 255 255
248 299 217 255 255 255
248 299 218 255 255 255
248 299 219 255 255 255
248 299 220 255 255 255
248 299 221 255 255 255
248 299 222 255 255 255
248 299 223 255 255 255
248 299 224 255 255 255
248 299 225 255 255 255
248 299 226 255 255 255
248 299 227 255 255 255
248 299 228 255 255 255
248 300 218 255 255 255
248 300 219 255 255 255
248 300 220 255 255 255
248 300 221 255 255 255
248 300 222 255 255 255
248 300 223 255 255 255
248 300 224 255 255 255
248 300 225 255 255 255
248 300 226 255 255 255
248 300 227 255 255 255
248 300 228 255 255 255
248 300 229 255 255 255
248 301 219 255 255 255
248 301 220 255 255 255
248 301 221 255 255 255
248 301 222 255 255 255
248 301 223 255 255 255
248 301 224 255 255 255
248 301 225 255 255 255
248 301 226 255 255 255
248 301 227 255 255 255
248 301 228 255 255 255
248 301 229 255 255 255
248 302 219 255 255 255
248 302 220 255 255 255
248 302 221 255 255 255
248 302 222 255 255 255
248 302 223 255 255 255
248 302 224 255 255 255
248 302 225 255 255 255
248 302 226 255 255 255
248 302 227 255 255 255
248 302 228 255 255 255
248 302 229 255 255 255
248 303 218 255 255 255
248 303 219 255 255 255
248 303 220 255 255 255
248 303 221 255 255 255
248 303 222 255 255 255
248 303 223 255 255 255
248 303 224 255 255 255
248 303 225 255 255 255
248 303 226 255 255 255
248 303 227 255 255 255
248 303 228 255 255 255
248 303 229 255 255 255
248 304 217 255 255 255
248 304 218 255 255 255
248 304 219 255 255 255
248 304 220 255 255 255
248 304 221 255 255 255
248 304 222 255 255 255
248 304 223 255 255 255
248 304 224 255 255 255
248 304 225 255 255 255
248 304 226 255 255 255
248 304 227 255 255 255
248 304 228 255 255 255
248 304 229 255 255 255
248 305 216 255 255 255
248 305 217 255 255 255
248 305 218 255 255 255
248 305 219 255 255 255
248 305 220 255 255 255
248 305 221 255 255 255
248 305 222 255 255 255
248 305 223 255 255 255
248 305 224 255 255 255
248 305 225 255 255 255
248 305 226 255 255 255
248 305 227 255 255 255
248 305 228 255 255 255
248 306 215 255 255 255
248 306 216 255 255 255
248 306 217 255 255 255
248 306 218 255 255 255
248 306 219 255 255 255
248 306 220 255 255 255
248 306 221 255 255 255
248 306 222 255 255 255
248 306 223 255 255 255
248 306 224 255 255 255
248 306 225 255 255 255
248 306 226 255 255 255
248 306 227 255 255 255
248 307 215 255 255 255
248 307 216 255 255 255
248 307 217 255 255 255
248 307 218 255 255 255
248 307 219 255 255 255
248 307 220 255 255 255
248 307 221 255 255 255
248 307 222 255 255 255
248 307 223 255 255 255
248 307 224 255 255 255
248 307 225 255 255 255
248 307 226 255 255 255
248 307 227 255 255 255
248 308 215 255 255 255
248 308 216 255 255 255
248 308 217 255 255 255
248 308 218 255 255 255
248 308 219 255 255 255
248 308 220 255 255 255
248 308 221 255 255 255
248 308 222 255 255 255
248 308 223 255 255 255
248 308 224 255 255 255
248 308 225 255 255 255
248 308 226 255 255 255
248 308 310 255 255 255
248 308 311 255 255 255
248 308 312 255 255 255
248 308 313 255 255 255
248 308 314 255 255 255
248 308 315 255 255 255
248 309 215 255 255 255
248 309 216 255 255 255
248 309 217 255 255 255
248 309 218 255 255 255
248 309 219 255 255 255
248 309 220 255 255 255
248 309 221 255 255 255
248 309 222 255 255 255
248 309 223 255 255 255
248 309 224 255 255 255
248 309 225 255 255 255
248 309 226 255 255 255
248 309 309 255 255 255
248 309 310 255 255 255
248 309 311 255 255 255
248 309 312 255 255 255
248 309 313 255 255 255
248 309 314 255 255 255
248 309 315 255 255 255
248 309 316 255 255 255
248 310 215 255 255 255
248 310 216 255 255 255
248 310 217 255 255 255
248 310 218 255 255 255
248 310 219 255 255 255
248 310 220 255 255 255
248 310 221 255 255 255
248 310 222 255 255 255
248 310 223 255 255 255
248 310 224 255 255 255
248 310 308 255 255 255
248 310 309 255 255 255
248 310 310 255 255 255
248 310 311 255 255 255
248 310 312 255 255 255
248 310 313 255 255 255
248 310 314 255 255 255
248 310 315 255 255 255
248 310 316 255 255 255
248 311 215 255 255 255
248 311 216 255 255 255
248 311 217 255 255 255
248 311 218 255 255 255
248 311 219 255 255 255
248 311 220 255 255 255
248 311 221 255 255 255
248 311 307 255 255 255
248 311 308 255 255 255
248 311 309 255 255 255
248 311 310 255 255 255
248 311 311 255 255 255
248 311 312 255 255 255
248 311 313 255 255 255
248 311 314 255 255 255
248 311 315 255 255 255
248 311 316 255 255 255
248 311 317 255 255 255
248 312 215 255 255 255
248 312 216 255 255 255
248 312 217 255 255 255
248 312 218 255 255 255
248 312 219 255 255 255
248 312 306 255 255 255
248 312 307 255 255 255
248 312 308 255 255 255
248 312 309 255 255 255
248 312 310 255 255 255
248 312 311 255 255 255
248 312 312 255 255 255
248 312 313 255 255 255
248 312 314 255 255 255
248 312 315 255 255 255
248 312 316 255 255 255
248 312 317 255 255 255
248 313 216 255 255 255
248 313 217 255 255 255
248 313 306 255 255 255
248 313 307 255 255 255
248 313 308 255 255 255
248 313 309 255 255 255
248 313 310 255 255 255
248 313 311 255 255 255
248 313 312 255 255 255
248 313 313 255 255 255
248 313 314 255 255 255
248 313 315 255 255 255
248 313 316 255 255 255
248 313 317 255 255 255
248 314 215 255 255 255
248 314 216 255 255 255
248 314 217 255 255 255
248 314 308 255 255 255
248 314 309 255 255 255
248 314 310 255 255 255
248 314 311 255 255 255
248 314 312 255 255 255
248 314 313 255 255 255
248 314 314 255 255 255
248 314 315 255 255 255
248 314 316 255 255 255
248 314 317 255 255 255
248 315 214 255 255 255
248 315 215 255 255 255
248 315 216 255 255 255
248 315 309 255 255 255
248 315 310 255 255 255
248 315 311 255 255 255
248 315 312 255 255 255
248 315 313 255 255 255
248 315 314 255 255 255
248 315 315 255 255 255
248 315 316 255 255 255
248 316 214 255 255 255
248 316 215 255 255 255
248 316 216 255 255 255
248 316 309 255 255 255
248 316 310 255 255 255
248 316 311 255 255 255
248 316 312 255 255 255
248 316 313 255 255 255
248 316 314 255 255 255
248 317 212 255 255 255
248 317 213 255 255 255
248 317 310 255 255 255
248 317 311 255 255 255
248 317 312 255 255 255
248 318 212 255 255 255
248 318 213 255 255 255
248 318 311 255 255 255
248 318 312 255 255 255
248 319 210 255 255 255
248 319 211 255 255 255
248 319 212 255 255 255
248 319 311 255 255 255
248 319 312 255 255 255
248 319 313 255 255 255
248 320 208 255 255 255
248 320 209 255 255 255
248 320 210 255 255 255
248 320 211 255 255 255
248 320 212 255 255 255
248 320 311 255 255 255
248 320 312 255 255 255
248 320 313 255 255 255
248 321 208 255 255 255
248 321 209 255 255 255
248 321 210 255 255 255
248 321 311 255 255 255
248 321 312 255 255 255
248 321 313 255 255 255
248 321 314 255 255 255
248 322 207 255 255 255
248 322 208 255 255 255
248 322 209 255 255 255
248 322 312 255 255 255
248 322 313 255 255 255
248 322 314 255 255 255
248 323 207 255 255 255
248 323 208 255 255 255
248 323 209 255 255 255
248 323 313 255 255 255
248 323 314 255 255 255
248 324 206 255 255 255
248 324 207 255 255 255
248 324 208 255 255 255
248 324 209 255 255 255
248 324 314 255 255 255
248 324 315 255 255 255
248 325 204 255 255 255
248 325 205 255 255 255
248 325 206 255 255 255
248 325 207 255 255 255
248 325 208 255 255 255
248 325 216 255 255 255
248 325 217 255 255 255
248 325 218 255 255 255
248 325 314 255 255 255
248 325 315 255 255 255
248 325 316 255 255 255
248 326 202 255 255 255
248 326 203 255 255 255
248 326 204 255 255 255
248 326 205 255 255 255
248 326 216 255 255 255
248 326 217 255 255 255
248 326 218 255 255 255
248 326 310 255 255 255
248 326 311 255 255 255
248 326 314 255 255 255
248 326 315 255 255 255
248 326 316 255 255 255
248 327 202 255 255 255
248 327 203 255 255 255
248 327 204 255 255 255
248 327 216 255 255 255
248 327 217 255 255 255
248 327 218 255 255 255
248 327 219 255 255 255
248 327 310 255 255 255
248 327 311 255 255 255
248 327 312 255 255 255
248 328 199 255 255 255
248 328 200 255 255 255
248 328 201 255 255 255
248 328 202 255 255 255
248 328 203 255 255 255
248 328 218 255 255 255
248 328 219 255 255 255
248 328 220 255 255 255
248 328 310 255 255 255
248 328 311 255 255 255
248 328 312 255 255 255
248 329 197 255 255 255
248 329 198 255 255 255
248 329 199 255 255 255
248 329 200 255 255 255
248 329 201 255 255 255
248 329 219 255 255 255
248 329 220 255 255 255
248 329 310 255 255 255
248 329 311 255 255 255
248 329 312 255 255 255
248 330 196 255 255 255
248 330 197 255 255 255
248 330 198 255 255 255
248 330 199 255 255 255
248 331 193 255 255 255
248 331 194 255 255 255
248 331 195 255 255 255
248 331 196 255 255 255
248 331 197 255 255 255
248 331 198 255 255 255
248 332 193 255 255 255
248 332 194 255 255 255
248 332 195 255 255 255
248 333 192 255 255 255
248 333 193 255 255 255
248 333 194 255 255 255
248 334 192 255 255 255
248 334 193 255 255 255
248 335 192 255 255 255
248 335 193 255 255 255
248 336 191 255 255 255
248 336 192 255 255 255
248 337 190 255 255 255
248 337 191 255 255 255
248 337 192 255 255 255
248 338 190 255 255 255
248 338 191 255 255 255
248 338 192 255 255 255
248 339 189 255 255 255
248 339 190 255 255 255
248 339 191 255 255 255
248 340 189 255 255 255
248 340 190 255 255 255
248 341 188 255 255 255
248 341 189 255 255 255
249 264 345 255 255 255
249 264 346 255 255 255
249 265 344 255 255 255
249 265 345 255 255 255
249 265 346 255 255 255
249 266 343 255 255 255
249 266 344 255 255 255
249 266 345 255 255 255
249 267 343 255 255 255
249 267 344 255 255 255
249 267 345 255 255 255
249 267 348 255 255 255
249 268 343 255 255 255
249 268 344 255 255 255
249 268 345 255 255 255
249 268 346 255 255 255
249 268 347 255 255 255
249 268 348 255 255 255
249 269 342 255 255 255
249 269 343 255 255 255
249 269 344 255 255 255
249 269 345 255 255 255
249 269 346 255 255 255
249 269 347 255 255 255
249 270 341 255 255 255
249 270 342 255 255 255
249 270 343 255 255 255
249 270 344 255 255 255
249 270 345 255 255 255
249 271 181 255 255 255
249 271 182 255 255 255
249 271 340 255 255 255
249 271 341 255 255 255
249 271 342 255 255 255
249 271 343 255 255 255
249 272 157 255 255 255
249 272 158 255 255 255
249 272 159 255 255 255
249 272 160 255 255 255
249 272 181 255 255 255
249 272 182 255 255 255
249 272 340 255 255 255
249 272 341 255 255 255
249 272 342 255 255 255
249 273 159 255 255 255
249 273 160 255 255 255
249 273 161 255 255 255
249 273 162 255 255 255
249 273 163 255 255 255
249 273 182 255 255 255
249 273 183 255 255 255
249 274 163 255 255 255
249 274 164 255 255 255
249 274 182 255 255 255
249 274 183 255 255 255
249 275 177 255 255 255
249 275 178 255 255 255
249 275 179 255 255 255
249 275 180 255 255 255
249 275 181 255 255 255
249 275 182 255 255 255
249 275 183 255 255 255
249 276 177 255 255 255
249 276 178 255 255 255
249 276 179 255 255 255
249 276 180 255 255 255
249 276 181 255 255 255
249 277 333 255 255 255
249 277 334 255 255 255
249 277 335 255 255 255
249 278 333 255 255 255
249 278 334 255 255 255
249 278 335 255 255 255
249 278 336 255 255 255
249 279 333 255 255 255
249 279 334 255 255 255
249 279 335 255 255 255
249 279 336 255 255 255
249 280 333 255 255 255
249 280 334 255 255 255
249 280 335 255 255 255
249 280 336 255 255 255
249 281 334 255 255 255
249 281 335 255 255 255
249 295 219 255 255 255
249 295 220 255 255 255
249 295 221 255 255 255
249 296 218 255 255 255
249 296 219 255 255 255
249 296 220 255 255 255
249 296 221 255 255 255
249 296 222 255 255 255
249 296 223 255 255 255
249 296 224 255 255 255
249 297 218 255 255 255
249 297 219 255 255 255
249 297 220 255 255 255
249 297 221 255 255 255
249 297 222 255 255 255
249 297 223 255 255 255
249 297 224 255 255 255
249 297 225 255 255 255
249 297 226 255 255 255
249 297 227 255 255 255
249 298 218 255 255 255
249 298 219 255 255 255
249 298 220 255 255 255
249 298 221 255 255 255
249 298 222 255 255 255
249 298 223 255 255 255
249 298 224 255 255 255
249 298 225 255 255 255
249 298 226 255 255 255
249 298 227 255 255 255
249 298 228 255 255 255
249 299 218 255 255 255
249 299 219 255 255 255
249 299 220 255 255 255
249 299 221 255 255 255
249 299 222 255 255 255
249 299 223 255 255 255
249 299 224 255 255 255
249 299 225 255 255 255
249 299 226 255 255 255
249 299 227 255 255 255
249 299 228 255 255 255
249 299 229 255 255 255
249 300 218 255 255 255
249 300 219 255 255 255
249 300 220 255 255 255
249 300 221 255 255 255
249 300 222 255 255 255
249 300 223 255 255 255
249 300 224 255 255 255
249 300 225 255 255 255
249 300 226 255 255 255
249 300 227 255 255 255
249 300 228 255 255 255
249 300 229 255 255 255
249 301 219 255 255 255
249 301 220 255 255 255
249 301 221 255 255 255
249 301 222 255 255 255
249 301 223 255 255 255
249 301 224 255 255 255
249 301 225 255 255 255
249 301 226 255 255 255
249 301 227 255 255 255
249 301 228 255 255 255
249 301 229 255 255 255
249 302 218 255 255 255
249 302 219 255 255 255
249 302 220 255 255 255
249 302 221 255 255 255
249 302 222 255 255 255
249 302 223 255 255 255
249 302 224 255 255 255
249 302 225 255 255 255
249 302 226 255 255 255
249 302 227 255 255 255
249 302 228 255 255 255
249 302 229 255 255 255
249 303 218 255 255 255
249 303 219 255 255 255
249 303 220 255 255 255
249 303 221 255 255 255
249 303 222 255 255 255
249 303 223 255 255 255
249 303 224 255 255 255
249 303 225 255 255 255
249 303 226 255 255 255
249 303 227 255 255 255
249 303 228 255 255 255
249 303 229 255 255 255
249 304 217 255 255 255
249 304 218 255 255 255
249 304 219 255 255 255
249 304 220 255 255 255
249 304 221 255 255 255
249 304 222 255 255 255
249 304 223 255 255 255
249 304 224 255 255 255
249 304 225 255 255 255
249 304 226 255 255 255
249 304 227 255 255 255
249 304 228 255 255 255
249 304 229 255 255 255
249 305 217 255 255 255
249 305 218 255 255 255
249 305 219 255 255 255
249 305 220 255 255 255
249 305 221 255 255 255
249 305 222 255 255 255
249 305 223 255 255 255
249 305 224 255 255 255
249 305 225 255 255 255
249 305 226 255 255 255
249 305 227 255 255 255
249 305 228 255 255 255
249 305 229 255 255 255
249 306 216 255 255 255
249 306 217 255 255 255
249 306 218 255 255 255
249 306 219 255 255 255
249 306 220 255 255 255
249 306 221 255 255 255
249 306 222 255 255 255
249 306 223 255 255 255
249 306 224 255 255 255
249 306 225 255 255 255
249 306 226 255 255 255
249 306 227 255 255 255
249 306 228 255 255 255
249 307 216 255 255 255
249 307 217 255 255 255
249 307 218 255 255 255
249 307 219 255 255 255
249 307 220 255 255 255
249 307 221 255 255 255
249 307 222 255 255 255
249 307 223 255 255 255
249 307 224 255 255 255
249 307 225 255 255 255
249 307 226 255 255 255
249 307 227 255 255 255
249 307 228 255 255 255
249 308 216 255 255 255
249 308 217 255 255 255
249 308 218 255 255 255
249 308 219 255 255 255
249 308 220 255 255 255
249 308 221 255 255 255
249 308 222 255 255 255
249 308 223 255 255 255
249 308 224 255 255 255
249 308 225 255 255 255
249 308 226 255 255 255
249 308 227 255 255 255
249 308 228 255 255 255
249 308 310 255 255 255
249 308 311 255 255 255
249 308 312 255 255 255
249 308 313 255 255 255
249 308 314 255 255 255
249 308 315 255 255 255
249 309 216 255 255 255
249 309 217 255 255 255
249 309 218 255 255 255
249 309 219 255 255 255
249 309 220 255 255 255
249 309 221 255 255 255
249 309 222 255 255 255
249 309 223 255 255 255
249 309 224 255 255 255
249 309 225 255 255 255
249 309 226 255 255 255
249 309 227 255 255 255
249 309 308 255 255 255
249 309 309 255 255 255
249 309 310 255 255 255
249 309 311 255 255 255
249 309 312 255 255 255
249 309 313 255 255 255
249 309 314 255 255 255
249 309 315 255 255 255
249 310 217 255 255 255
249 310 218 255 255 255
249 310 219 255 255 255
249 310 220 255 255 255
249 310 221 255 255 255
249 310 222 255 255 255
249 310 223 255 255 255
249 310 307 255 255 255
249 310 308 255 255 255
249 310 309 255 255 255
249 310 310 255 255 255
249 310 311 255 255 255
249 310 312 255 255 255
249 310 313 255 255 255
249 310 314 255 255 255
249 310 315 255 255 255
249 310 316 255 255 255
249 311 306 255 255 255
249 311 307 255 255 255
249 311 308 255 255 255
249 311 309 255 255 255
249 311 310 255 255 255
249 311 311 255 255 255
249 311 312 255 255 255
249 311 313 255 255 255
249 311 314 255 255 255
249 311 315 255 255 255
249 311 316 255 255 255
249 312 306 255 255 255
249 312 307 255 255 255
249 312 308 255 255 255
249 312 309 255 255 255
249 312 310 255 255 255
249 312 311 255 255 255
249 312 312 255 255 255
249 312 313 255 255 255
249 312 314 255 255 255
249 312 315 255 255 255
249 312 316 255 255 255
249 313 306 255 255 255
249 313 307 255 255 255
249 313 308 255 255 255
249 313 309 255 255 255
249 313 310 255 255 255
249 313 311 255 255 255
249 313 312 255 255 255
249 313 313 255 255 255
249 313 314 255 255 255
249 313 315 255 255 255
249 313 316 255 255 255
249 314 307 255 255 255
249 314 308 255 255 255
249 314 309 255 255 255
249 314 310 255 255 255
249 314 311 255 255 255
249 314 312 255 255 255
249 314 313 255 255 255
249 314 314 255 255 255
249 314 315 255 255 255
249 315 308 255 255 255
249 315 309 255 255 255
249 315 310 255 255 255
249 315 311 255 255 255
249 315 312 255 255 255
249 315 313 255 255 255
249 315 314 255 255 255
249 316 309 255 255 255
249 316 310 255 255 255
249 316 311 255 255 255
249 316 312 255 255 255
249 317 309 255 255 255
249 317 310 255 255 255
249 317 311 255 255 255
249 317 312 255 255 255
249 318 310 255 255 255
249 318 311 255 255 255
249 318 312 255 255 255
249 318 313 255 255 255
249 319 210 255 255 255
249 319 211 255 255 255
249 319 212 255 255 255
249 319 311 255 255 255
249 319 312 255 255 255
249 319 313 255 255 255
249 319 314 255 255 255
249 320 208 255 255 255
249 320 209 255 255 255
249 320 210 255 255 255
249 320 211 255 255 255
249 320 311 255 255 255
249 320 312 255 255 255
249 320 313 255 255 255
249 320 314 255 255 255
249 321 207 255 255 255
249 321 208 255 255 255
249 321 209 255 255 255
249 321 210 255 255 255
249 321 311 255 255 255
249 321 312 255 255 255
249 321 313 255 255 255
249 321 314 255 255 255
249 322 207 255 255 255
249 322 208 255 255 255
249 322 209 255 255 255
249 322 312 255 255 255
249 322 313 255 255 255
249 322 314 255 255 255
249 322 315 255 255 255
249 322 316 255 255 255
249 323 206 255 255 255
249 323 207 255 255 255
249 323 208 255 255 255
249 323 209 255 255 255
249 323 217 255 255 255
249 323 218 255 255 255
249 323 313 255 255 255
249 323 314 255 255 255
249 323 315 255 255 255
249 323 316 255 255 255
249 324 206 255 255 255
249 324 207 255 255 255
249 324 208 255 255 255
249 324 209 255 255 255
249 324 217 255 255 255
249 324 218 255 255 255
249 324 314 255 255 255
249 324 315 255 255 255
249 324 316 255 255 255
249 325 204 255 255 255
249 325 205 255 255 255
249 325 206 255 255 255
249 325 207 255 255 255
249 325 208 255 255 255
249 325 217 255 255 255
249 325 218 255 255 255
249 325 315 255 255 255
249 325 316 255 255 255
249 326 202 255 255 255
249 326 203 255 255 255
249 326 204 255 255 255
249 326 205 255 255 255
249 326 206 255 255 255
249 326 207 255 255 255
249 326 216 255 255 255
249 326 217 255 255 255
249 326 218 255 255 255
249 326 310 255 255 255
249 326 311 255 255 255
249 326 315 255 255 255
249 326 316 255 255 255
249 327 201 255 255 255
249 327 202 255 255 255
249 327 203 255 255 255
249 327 204 255 255 255
249 327 216 255 255 255
249 327 217 255 255 255
249 327 218 255 255 255
249 327 219 255 255 255
249 327 220 255 255 255
249 327 310 255 255 255
249 327 311 255 255 255
249 327 312 255 255 255
249 328 199 255 255 255
249 328 200 255 255 255
249 328 201 255 255 255
249 328 202 255 255 255
249 328 203 255 255 255
249 328 218 255 255 255
249 328 219 255 255 255
249 328 220 255 255 255
249 328 310 255 255 255
249 328 311 255 255 255
249 328 312 255 255 255
249 329 197 255 255 255
249 329 198 255 255 255
249 329 199 255 255 255
249 329 200 255 255 255
249 329 201 255 255 255
249 329 202 255 255 255
249 329 219 255 255 255
249 329 220 255 255 255
249 330 196 255 255 255
249 330 197 255 255 255
249 330 198 255 255 255
249 330 199 255 255 255
249 331 192 255 255 255
249 331 193 255 255 255
249 331 194 255 255 255
249 331 195 255 255 255
249 331 196 255 255 255
249 331 197 255 255 255
249 332 192 255 255 255
249 332 193 255 255 255
249 332 194 255 255 255
249 332 195 255 255 255
249 332 196 255 255 255
249 333 192 255 255 255
249 333 193 255 255 255
249 333 194 255 255 255
249 334 192 255 255 255
249 334 193 255 255 255
249 334 194 255 255 255
249 335 192 255 255 255
250 266 344 255 255 255
250 267 344 255 255 255
250 267 345 255 255 255
250 268 343 255 255 255
250 268 344 255 255 255
250 268 345 255 255 255
250 269 342 255 255 255
250 269 343 255 255 255
250 269 344 255 255 255
250 269 345 255 255 255
250 270 180 255 255 255
250 270 181 255 255 255
250 270 182 255 255 255
250 270 341 255 255 255
250 270 342 255 255 255
250 270 343 255 255 255
250 270 344 255 255 255
250 270 345 255 255 255
250 271 180 255 255 255
250 271 181 255 255 255
250 271 182 255 255 255
250 271 183 255 255 255
250 271 340 255 255 255
250 271 341 255 255 255
250 271 342 255 255 255
250 271 343 255 255 255
250 272 158 255 255 255
250 272 159 255 255 255
250 272 160 255 255 255
250 272 161 255 255 255
250 272 181 255 255 255
250 272 182 255 255 255
250 272 183 255 255 255
250 272 339 255 255 255
250 272 340 255 255 255
250 272 341 255 255 255
250 272 342 255 255 255
250 273 160 255 255 255
250 273 161 255 255 255
250 273 162 255 255 255
250 273 163 255 255 255
250 273 164 255 255 255
250 273 183 255 255 255
250 273 338 255 255 255
250 273 339 255 255 255
250 273 340 255 255 255
250 273 341 255 255 255
250 274 163 255 255 255
250 274 164 255 255 255
250 274 165 255 255 255
250 275 165 255 255 255
250 275 166 255 255 255
250 275 167 255 255 255
250 275 168 255 255 255
250 275 169 255 255 255
250 275 170 255 255 255
250 275 174 255 255 255
250 275 175 255 255 255
250 275 176 255 255 255
250 275 177 255 255 255
250 275 178 255 255 255
250 275 179 255 255 255
250 275 180 255 255 255
250 275 181 255 255 255
250 276 167 255 255 255
250 276 168 255 255 255
250 276 169 255 255 255
250 276 170 255 255 255
250 276 171 255 255 255
250 276 172 255 255 255
250 276 173 255 255 255
250 276 174 255 255 255
250 276 175 255 255 255
250 276 176 255 255 255
250 276 177 255 255 255
250 276 178 255 255 255
250 276 179 255 255 255
250 276 180 255 255 255
250 276 181 255 255 255
250 277 175 255 255 255
250 277 176 255 255 255
250 277 177 255 255 255
250 277 178 255 255 255
250 278 176 255 255 255
250 278 177 255 255 255
250 278 333 255 255 255
250 278 334 255 255 255
250 278 335 255 255 255
250 279 332 255 255 255
250 279 333 255 255 255
250 279 334 255 255 255
250 279 335 255 255 255
250 279 336 255 255 255
250 280 332 255 255 255
250 280 333 255 255 255
250 280 334 255 255 255
250 280 335 255 255 255
250 280 336 255 255 255
250 281 333 255 255 255
250 281 334 255 255 255
250 281 335 255 255 255
250 296 221 255 255 255
250 296 222 255 255 255
250 296 223 255 255 255
250 297 219 255 255 255
250 297 220 255 255 255
250 297 221 255 255 255
250 297 222 255 255 255
250 297 223 255 255 255
250 297 224 255 255 255
250 297 225 255 255 255
250 297 226 255 255 255
250 297 227 255 255 255
250 298 219 255 255 255
250 298 220 255 255 255
250 298 221 255 255 255
250 298 222 255 255 255
250 298 223 255 255 255
250 298 224 255 255 255
250 298 225 255 255 255
250 298 226 255 255 255
250 298 227 255 255 255
250 298 228 255 255 255
250 299 218 255 255 255
250 299 219 255 255 255
250 299 220 255 255 255
250 299 221 255 255 255
250 299 222 255 255 255
250 299 223 255 255 255
250 299 224 255 255 255
250 299 225 255 255 255
250 299 226 255 255 255
250 299 227 255 255 255
250 299 228 255 255 255
250 299 229 255 255 255
250 300 219 255 255 255
250 300 220 255 255 255
250 300 221 255 255 255
250 300 222 255 255 255
250 300 223 255 255 255
250 300 224 255 255 255
250 300 225 255 255 255
250 300 226 255 255 255
250 300 227 255 255 255
250 300 228 255 255 255
250 300 229 255 255 255
250 301 219 255 255 255
250 301 220 255 255 255
250 301 221 255 255 255
250 301 222 255 255 255
250 301 223 255 255 255
250 301 224 255 255 255
250 301 225 255 255 255
250 301 226 255 255 255
250 301 227 255 255 255
250 301 228 255 255 255
250 301 229 255 255 255
250 301 230 255 255 255
250 302 219 255 255 255
250 302 220 255 255 255
250 302 221 255 255 255
250 302 222 255 255 255
250 302 223 255 255 255
250 302 224 255 255 255
250 302 225 255 255 255
250 302 226 255 255 255
250 302 227 255 255 255
250 302 228 255 255 255
250 302 229 255 255 255
250 302 230 255 255 255
250 303 218 255 255 255
250 303 219 255 255 255
250 303 220 255 255 255
250 303 221 255 255 255
250 303 222 255 255 255
250 303 223 255 255 255
250 303 224 255 255 255
250 303 225 255 255 255
250 303 226 255 255 255
250 303 227 255 255 255
250 303 228 255 255 255
250 303 229 255 255 255
250 303 230 255 255 255
250 304 218 255 255 255
250 304 219 255 255 255
250 304 220 255 255 255
250 304 221 255 255 255
250 304 222 255 255 255
250 304 223 255 255 255
250 304 224 255 255 255
250 304 225 255 255 255
250 304 226 255 255 255
250 304 227 255 255 255
250 304 228 255 255 255
250 304 229 255 255 255
250 304 230 255 255 255
250 305 217 255 255 255
250 305 218 255 255 255
250 305 219 255 255 255
250 305 220 255 255 255
250 305 221 255 255 255
250 305 222 255 255 255
250 305 223 255 255 255
250 305 224 255 255 255
250 305 225 255 255 255
250 305 226 255 255 255
250 305 227 255 255 255
250 305 228 255 255 255
250 305 229 255 255 255
250 305 230 255 255 255
250 306 217 255 255 255
250 306 218 255 255 255
250 306 219 255 255 255
250 306 220 255 255 255
250 306 221 255 255 255
250 306 222 255 255 255
250 306 223 255 255 255
250 306 224 255 255 255
250 306 225 255 255 255
250 306 226 255 255 255
250 306 227 255 255 255
250 306 228 255 255 255
250 306 229 255 255 255
250 306 230 255 255 255
250 307 217 255 255 255
250 307 218 255 255 255
250 307 219 255 255 255
250 307 220 255 255 255
250 307 221 255 255 255
250 307 222 255 255 255
250 307 223 255 255 255
250 307 224 255 255 255
250 307 225 255 255 255
250 307 226 255 255 255
250 307 227 255 255 255
250 307 228 255 255 255
250 307 229 255 255 255
250 307 312 255 255 255
250 307 313 255 255 255
250 308 217 255 255 255
250 308 218 255 255 255
250 308 219 255 255 255
250 308 220 255 255 255
250 308 221 255 255 255
250 308 222 255 255 255
250 308 223 255 255 255
250 308 224 255 255 255
250 308 225 255 255 255
250 308 226 255 255 255
250 308 227 255 255 255
250 308 228 255 255 255
250 308 229 255 255 255
250 308 309 255 255 255
250 308 310 255 255 255
250 308 311 255 255 255
250 308 312 255 255 255
250 308 313 255 255 255
250 308 314 255 255 255
250 308 315 255 255 255
250 309 218 255 255 255
250 309 219 255 255 255
250 309 220 255 255 255
250 309 221 255 255 255
250 309 222 255 255 255
250 309 223 255 255 255
250 309 224 255 255 255
250 309 225 255 255 255
250 309 226 255 255 255
250 309 227 255 255 255
250 309 228 255 255 255
250 309 307 255 255 255
250 309 308 255 255 255
250 309 309 255 255 255
250 309 310 255 255 255
250 309 311 255 255 255
250 309 312 255 255 255
250 309 313 255 255 255
250 309 314 255 255 255
250 309 315 255 255 255
250 309 316 255 255 255
250 310 220 255 255 255
250 310 306 255 255 255
250 310 307 255 255 255
250 310 308 255 255 255
250 310 309 255 255 255
250 310 310 255 255 255
250 310 311 255 255 255
250 310 312 255 255 255
250 310 313 255 255 255
250 310 314 255 255 255
250 310 315 255 255 255
250 310 316 255 255 255
250 311 306 255 255 255
250 311 307 255 255 255
250 311 308 255 255 255
250 311 309 255 255 255
250 311 310 255 255 255
250 311 311 255 255 255
250 311 312 255 255 255
250 311 313 255 255 255
250 311 314 255 255 255
250 311 315 255 255 255
250 311 316 255 255 255
250 312 305 255 255 255
250 312 306 255 255 255
250 312 307 255 255 255
250 312 308 255 255 255
250 312 309 255 255 255
250 312 310 255 255 255
250 312 311 255 255 255
250 312 312 255 255 255
250 312 313 255 255 255
250 312 314 255 255 255
250 312 315 255 255 255
250 312 316 255 255 255
250 313 306 255 255 255
250 313 307 255 255 255
250 313 308 255 255 255
250 313 309 255 255 255
250 313 310 255 255 255
250 313 311 255 255 255
250 313 312 255 255 255
250 313 313 255 255 255
250 313 314 255 255 255
250 313 315 255 255 255
250 313 316 255 255 255
250 314 307 255 255 255
250 314 308 255 255 255
250 314 309 255 255 255
250 314 310 255 255 255
250 314 311 255 255 255
250 314 312 255 255 255
250 314 313 255 255 255
250 314 314 255 255 255
250 315 308 255 255 255
250 315 309 255 255 255
250 315 310 255 255 255
250 315 311 255 255 255
250 315 312 255 255 255
250 315 313 255 255 255
250 316 308 255 255 255
250 316 309 255 255 255
250 316 310 255 255 255
250 316 311 255 255 255
250 316 312 255 255 255
250 317 309 255 255 255
250 317 310 255 255 255
250 317 311 255 255 255
250 317 312 255 255 255
250 317 313 255 255 255
250 318 310 255 255 255
250 318 311 255 255 255
250 318 312 255 255 255
250 318 313 255 255 255
250 318 314 255 255 255
250 319 310 255 255 255
250 319 311 255 255 255
250 319 312 255 255 255
250 319 313 255 255 255
250 319 314 255 255 255
250 320 311 255 255 255
250 320 312 255 255 255
250 320 313 255 255 255
250 320 314 255 255 255
250 321 208 255 255 255
250 321 209 255 255 255
250 321 311 255 255 255
250 321 312 255 255 255
250 321 313 255 255 255
250 321 314 255 255 255
250 322 207 255 255 255
250 322 208 255 255 255
250 322 209 255 255 255
250 322 312 255 255 255
250 322 313 255 255 255
250 322 314 255 255 255
250 322 315 255 255 255
250 323 206 255 255 255
250 323 207 255 255 255
250 323 208 255 255 255
250 323 313 255 255 255
250 323 314 255 255 255
250 323 315 255 255 255
250 323 316 255 255 255
250 324 205 255 255 255
250 324 206 255 255 255
250 324 207 255 255 255
250 324 208 255 255 255
250 324 314 255 255 255
250 324 315 255 255 255
250 324 316 255 255 255
250 324 317 255 255 255
250 325 203 255 255 255
250 325 204 255 255 255
250 325 205 255 255 255
250 325 206 255 255 255
250 325 207 255 255 255
250 325 208 255 255 255
250 325 315 255 255 255
250 325 316 255 255 255
250 325 317 255 255 255
250 326 202 255 255 255
250 326 203 255 255 255
250 326 204 255 255 255
250 326 205 255 255 255
250 326 206 255 255 255
250 326 207 255 255 255
250 326 310 255 255 255
250 326 311 255 255 255
250 326 312 255 255 255
250 326 315 255 255 255
250 326 316 255 255 255
250 326 317 255 255 255
250 327 201 255 255 255
250 327 202 255 255 255
250 327 203 255 255 255
250 327 204 255 255 255
250 327 205 255 255 255
250 327 206 255 255 255
250 327 218 255 255 255
250 327 219 255 255 255
250 327 310 255 255 255
250 327 311 255 255 255
250 327 312 255 255 255
250 327 316 255 255 255
250 327 317 255 255 255
250 328 199 255 255 255
250 328 200 255 255 255
250 328 201 255 255 255
250 328 202 255 255 255
250 328 203 255 255 255
250 328 204 255 255 255
250 328 218 255 255 255
250 328 219 255 255 255
250 328 220 255 255 255
250 328 311 255 255 255
250 328 312 255 255 255
250 328 316 255 255 255
250 328 317 255 255 255
250 329 197 255 255 255
250 329 198 255 255 255
250 329 199 255 255 255
250 329 200 255 255 255
250 329 201 255 255 255
250 329 202 255 255 255
250 329 219 255 255 255
250 329 220 255 255 255
250 329 317 255 255 255
250 329 318 255 255 255
250 330 196 255 255 255
250 330 197 255 255 255
250 330 198 255 255 255
250 330 199 255 255 255
250 330 200 255 255 255
250 330 318 255 255 255
250 330 319 255 255 255
250 331 192 255 255 255
250 331 193 255 255 255
250 331 194 255 255 255
250 331 195 255 255 255
250 331 196 255 255 255
250 331 197 255 255 255
250 331 319 255 255 255
250 332 192 255 255 255
250 332 193 255 255 255
250 332 194 255 255 255
250 332 195 255 255 255
250 332 196 255 255 255
250 332 319 255 255 255
250 332 320 255 255 255
250 333 193 255 255 255
250 333 194 255 255 255
250 333 320 255 255 255
250 333 321 255 255 255
250 334 320 255 255 255
250 334 321 255 255 255
250 335 321 255 255 255
250 336 321 255 255 255
250 337 321 255 255 255
250 338 321 255 255 255
250 339 321 255 255 255
250 340 320 255 255 255
250 340 321 255 255 255
250 341 320 255 255 255
250 341 321 255 255 255
250 342 320 255 255 255
250 342 321 255 255 255
250 343 320 255 255 255
250 343 321 255 255 255
250 344 320 255 255 255
251 242 164 255 255 255
251 243 164 255 255 255
251 243 165 255 255 255
251 244 164 255 255 255
251 244 165 255 255 255
251 245 165 255 255 255
251 245 166 255 255 255
251 246 165 255 255 255
251 246 166 255 255 255
251 247 166 255 255 255
251 247 167 255 255 255
251 248 167 255 255 255
251 249 167 255 255 255
251 249 168 255 255 255
251 250 168 255 255 255
251 251 168 255 255 255
251 251 169 255 255 255
251 252 169 255 255 255
251 253 169 255 255 255
251 254 169 255 255 255
251 254 170 255 255 255
251 255 170 255 255 255
251 256 170 255 255 255
251 256 171 255 255 255
251 256 172 255 255 255
251 257 170 255 255 255
251 257 171 255 255 255
251 257 172 255 255 255
251 258 171 255 255 255
251 258 172 255 255 255
251 259 172 255 255 255
251 260 172 255 255 255
251 260 173 255 255 255
251 261 172 255 255 255
251 261 173 255 255 255
251 262 173 255 255 255
251 262 174 255 255 255
251 263 173 255 255 255
251 263 174 255 255 255
251 264 174 255 255 255
251 264 175 255 255 255
251 265 174 255 255 255
251 265 175 255 255 255
251 266 175 255 255 255
251 266 176 255 255 255
251 267 176 255 255 255
251 267 177 255 255 255
251 268 177 255 255 255
251 268 178 255 255 255
251 269 178 255 255 255
251 269 179 255 255 255
251 269 180 255 255 255
251 269 343 255 255 255
251 269 344 255 255 255
251 270 179 255 255 255
251 270 180 255 255 255
251 270 181 255 255 255
251 270 182 255 255 255
251 270 341 255 255 255
251 270 342 255 255 255
251 270 343 255 255 255
251 270 344 255 255 255
251 271 180 255 255 255
251 271 181 255 255 255
251 271 182 255 255 255
251 271 340 255 255 255
251 271 341 255 255 255
251 271 342 255 255 255
251 271 343 255 255 255
251 272 180 255 255 255
251 272 181 255 255 255
251 272 182 255 255 255
251 272 339 255 255 255
251 272 340 255 255 255
251 272 341 255 255 255
251 272 342 255 255 255
251 273 338 255 255 255
251 273 339 255 255 255
251 273 340 255 255 255
251 273 341 255 255 255
251 274 161 255 255 255
251 274 162 255 255 255
251 274 163 255 255 255
251 274 164 255 255 255
251 274 165 255 255 255
251 274 166 255 255 255
251 274 337 255 255 255
251 274 338 255 255 255
251 274 339 255 255 255
251 275 164 255 255 255
251 275 165 255 255 255
251 275 166 255 255 255
251 275 167 255 255 255
251 275 168 255 255 255
251 275 169 255 255 255
251 275 170 255 255 255
251 275 171 255 255 255
251 275 172 255 255 255
251 275 173 255 255 255
251 275 174 255 255 255
251 275 175 255 255 255
251 275 176 255 255 255
251 275 177 255 255 255
251 275 178 255 255 255
251 275 179 255 255 255
251 276 168 255 255 255
251 276 169 255 255 255
251 276 170 255 255 255
251 276 171 255 255 255
251 276 172 255 255 255
251 276 173 255 255 255
251 276 174 255 255 255
251 276 175 255 255 255
251 276 176 255 255 255
251 276 177 255 255 255
251 276 178 255 255 255
251 276 179 255 255 255
251 277 170 255 255 255
251 277 171 255 255 255
251 277 175 255 255 255
251 277 176 255 255 255
251 277 177 255 255 255
251 277 178 255 255 255
251 278 175 255 255 255
251 278 176 255 255 255
251 278 177 255 255 255
251 278 178 255 255 255
251 278 332 255 255 255
251 278 333 255 255 255
251 279 177 255 255 255
251 279 332 255 255 255
251 279 333 255 255 255
251 279 334 255 255 255
251 280 332 255 255 255
251 280 333 255 255 255
251 280 334 255 255 255
251 280 335 255 255 255
251 281 332 255 255 255
251 281 333 255 255 255
251 281 334 255 255 255
251 281 335 255 255 255
251 282 333 255 255 255
251 282 334 255 255 255
251 282 335 255 255 255
251 297 221 255 255 255
251 297 222 255 255 255
251 297 223 255 255 255
251 297 224 255 255 255
251 297 225 255 255 255
251 297 226 255 255 255
251 297 227 255 255 255
251 298 220 255 255 255
251 298 221 255 255 255
251 298 222 255 255 255
251 298 223 255 255 255
251 298 224 255 255 255
251 298 225 255 255 255
251 298 226 255 255 255
251 298 227 255 255 255
251 298 228 255 255 255
251 298 229 255 255 255
251 299 219 255 255 255
251 299 220 255 255 255
251 299 221 255 255 255
251 299 222 255 255 255
251 299 223 255 255 255
251 299 224 255 255 255
251 299 225 255 255 255
251 299 226 255 255 255
251 299 227 255 255 255
251 299 228 255 255 255
251 299 229 255 255 255
251 299 230 255 255 255
251 300 219 255 255 255
251 300 220 255 255 255
251 300 221 255 255 255
251 300 222 255 255 255
251 300 223 255 255 255
251 300 224 255 255 255
251 300 225 255 255 255
251 300 226 255 255 255
251 300 227 255 255 255
251 300 228 255 255 255
251 300 229 255 255 255
251 300 230 255 255 255
251 301 219 255 255 255
251 301 220 255 255 255
251 301 221 255 255 255
251 301 222 255 255 255
251 301 223 255 255 255
251 301 224 255 255 255
251 301 225 255 255 255
251 301 226 255 255 255
251 301 227 255 255 255
251 301 228 255 255 255
251 301 229 255 255 255
251 301 230 255 255 255
251 301 231 255 255 255
251 302 219 255 255 255
251 302 220 255 255 255
251 302 221 255 255 255
251 302 222 255 255 255
251 302 223 255 255 255
251 302 224 255 255 255
251 302 225 255 255 255
251 302 226 255 255 255
251 302 227 255 255 255
251 302 228 255 255 255
251 302 229 255 255 255
251 302 230 255 255 255
251 302 231 255 255 255
251 303 219 255 255 255
251 303 220 255 255 255
251 303 221 255 255 255
251 303 222 255 255 255
251 303 223 255 255 255
251 303 224 255 255 255
251 303 225 255 255 255
251 303 226 255 255 255
251 303 227 255 255 255
251 303 228 255 255 255
251 303 229 255 255 255
251 303 230 255 255 255
251 303 231 255 255 255
251 304 218 255 255 255
251 304 219 255 255 255
251 304 220 255 255 255
251 304 221 255 255 255
251 304 222 255 255 255
251 304 223 255 255 255
251 304 224 255 255 255
251 304 225 255 255 255
251 304 226 255 255 255
251 304 227 255 255 255
251 304 228 255 255 255
251 304 229 255 255 255
251 304 230 255 255 255
251 304 231 255 255 255
251 305 218 255 255 255
251 305 219 255 255 255
251 305 220 255 255 255
251 305 221 255 255 255
251 305 222 255 255 255
251 305 223 255 255 255
251 305 224 255 255 255
251 305 225 255 255 255
251 305 226 255 255 255
251 305 227 255 255 255
251 305 228 255 255 255
251 305 229 255 255 255
251 305 230 255 255 255
251 305 231 255 255 255
251 306 217 255 255 255
251 306 218 255 255 255
251 306 219 255 255 255
251 306 220 255 255 255
251 306 221 255 255 255
251 306 222 255 255 255
251 306 223 255 255 255
251 306 224 255 255 255
251 306 225 255 255 255
251 306 226 255 255 255
251 306 227 255 255 255
251 306 228 255 255 255
251 306 229 255 255 255
251 306 230 255 255 255
251 307 217 255 255 255
251 307 218 255 255 255
251 307 219 255 255 255
251 307 220 255 255 255
251 307 221 255 255 255
251 307 222 255 255 255
251 307 223 255 255 255
251 307 224 255 255 255
251 307 225 255 255 255
251 307 226 255 255 255
251 307 227 255 255 255
251 307 228 255 255 255
251 307 229 255 255 255
251 307 230 255 255 255
251 307 310 255 255 255
251 307 311 255 255 255
251 307 312 255 255 255
251 307 313 255 255 255
251 307 314 255 255 255
251 308 218 255 255 255
251 308 219 255 255 255
251 308 220 255 255 255
251 308 221 255 255 255
251 308 222 255 255 255
251 308 223 255 255 255
251 308 224 255 255 255
251 308 225 255 255 255
251 308 226 255 255 255
251 308 227 255 255 255
251 308 228 255 255 255
251 308 229 255 255 255
251 308 308 255 255 255
251 308 309 255 255 255
251 308 310 255 255 255
251 308 311 255 255 255
251 308 312 255 255 255
251 308 313 255 255 255
251 308 314 255 255 255
251 308 315 255 255 255
251 309 219 255 255 255
251 309 220 255 255 255
251 309 221 255 255 255
251 309 222 255 255 255
251 309 223 255 255 255
251 309 224 255 255 255
251 309 225 255 255 255
251 309 226 255 255 255
251 309 227 255 255 255
251 309 228 255 255 255
251 309 229 255 255 255
251 309 306 255 255 255
251 309 307 255 255 255
251 309 308 255 255 255
251 309 309 255 255 255
251 309 310 255 255 255
251 309 311 255 255 255
251 309 312 255 255 255
251 309 313 255 255 255
251 309 314 255 255 255
251 309 315 255 255 255
251 310 306 255 255 255
251 310 307 255 255 255
251 310 308 255 255 255
251 310 309 255 255 255
251 310 310 255 255 255
251 310 311 255 255 255
251 310 312 255 255 255
251 310 313 255 255 255
251 310 314 255 255 255
251 310 315 255 255 255
251 310 316 255 255 255
251 311 305 255 255 255
251 311 306 255 255 255
251 311 307 255 255 255
251 311 308 255 255 255
251 311 309 255 255 255
251 311 310 255 255 255
251 311 311 255 255 255
251 311 312 255 255 255
251 311 313 255 255 255
251 311 314 255 255 255
251 311 315 255 255 255
251 311 316 255 255 255
251 312 305 255 255 255
251 312 306 255 255 255
251 312 307 255 255 255
251 312 308 255 255 255
251 312 309 255 255 255
251 312 310 255 255 255
251 312 311 255 255 255
251 312 312 255 255 255
251 312 313 255 255 255
251 312 314 255 255 255
251 312 315 255 255 255
251 312 316 255 255 255
251 313 306 255 255 255
251 313 307 255 255 255
251 313 308 255 255 255
251 313 309 255 255 255
251 313 310 255 255 255
251 313 311 255 255 255
251 313 312 255 255 255
251 313 313 255 255 255
251 313 314 255 255 255
251 314 307 255 255 255
251 314 308 255 255 255
251 314 309 255 255 255
251 314 310 255 255 255
251 314 311 255 255 255
